4207323.86738 7544024.20436 8.042000000000002 100 100 100
4207322.54338 7544026.92836 8.221 100 100 100
4207324.0193799995 7544025.51736 8.048000000000002 100 100 100
4207323.66538 7544023.99936 8.02 100 100 100
4207324.78838 7544021.368360001 7.622 100 100 100
4207323.36338 7544021.89536 7.754000000000001 100 100 100
4207324.854379999 7544026.25236 7.844000000000001 100 100 100
4207326.30038 7544021.52536 8.957999999999998 100 100 100
4207327.53838 7544026.862360001 7.690999999999999 100 100 100
4207326.77738 7544025.032360001 9.216000000000001 100 100 100
4207326.57338 7544021.21136 7.547000000000001 100 100 100
4207324.12438 7544022.92236 7.847000000000001 100 100 100
4207325.08338 7544021.20736 7.577000000000002 100 100 100
4207327.3603799995 7544026.36636 7.715 100 100 100
4207323.91838 7544023.29036 7.911999999999999 100 100 100
4207322.90438 7544023.41536 7.841000000000001 100 100 100
4207323.76538 7544025.85336 8.280000000000001 100 100 100
4207325.29438 7544023.25236 7.9460000000000015 100 100 100
4207325.55638 7544024.22436 8.202000000000002 100 100 100
4207325.63038 7544024.48036 9.146999999999998 100 100 100
4207326.55138 7544025.521360001 9.100999999999999 100 100 100
4207326.86638 7544021.34836 7.532 100 100 100
4207324.1103799995 7544025.53536 7.984999999999999 100 100 100
4207326.40038 7544023.822360001 9.104 100 100 100
4207326.7523799995 7544021.30736 7.582999999999998 100 100 100
4207325.473379999 7544029.37036 7.745000000000001 100 100 100
4207327.68738 7544032.75036 8.029 100 100 100
4207326.89238 7544029.74036 7.782 100 100 100
4207326.76838 7544027.76436 7.690000000000001 100 100 100
4207326.47638 7544031.40336 7.940999999999999 100 100 100
4207327.12838 7544027.72136 7.693000000000001 100 100 100
4207322.81038 7544029.67636 7.748999999999999 100 100 100
4207322.23738 7544031.4013600005 7.843 100 100 100
4207326.69338 7544029.14536 7.719000000000001 100 100 100
4207322.31638 7544029.106360001 7.722000000000001 100 100 100
4207323.229379999 7544031.45436 7.885000000000002 100 100 100
4207322.5933799995 7544031.79836 7.987000000000002 100 100 100
4207325.63038 7544029.68836 7.763999999999999 100 100 100
4207324.9683799995 7544030.94036 7.881 100 100 100
4207324.63738 7544029.77336 7.744 100 100 100
4207322.04038 7544030.1513600005 7.797000000000001 100 100 100
4207324.01638 7544027.34736 7.7109999999999985 100 100 100
4207326.632379999 7544031.77036 8.009 100 100 100
4207324.7523799995 7544029.41036 7.715 100 100 100
4207323.41238 7544030.81736 7.838000000000001 100 100 100
4207323.35138 7544029.79136 7.748999999999999 100 100 100
4207324.64838 7544027.52836 7.684999999999999 100 100 100
4207325.02738 7544028.77236 7.655999999999999 100 100 100
4207326.04938 7544031.17636 7.957000000000001 100 100 100
4207323.001379999 7544031.70736 7.940999999999999 100 100 100
4207326.85838 7544027.407360001 7.75 100 100 100
4207324.6843799995 7544029.41036 7.715 100 100 100
4207323.808379999 7544028.79236 7.687000000000001 100 100 100
4207322.77938 7544031.26836 7.8359999999999985 100 100 100
4207322.59938 7544031.19636 7.812000000000001 100 100 100
4207327.240379999 7544032.08636 7.954000000000001 100 100 100
4207325.80738 7544030.21636 7.84 100 100 100
4207326.65438 7544027.9413600005 7.66 100 100 100
4207327.71438 7544028.03736 7.649999999999999 100 100 100
4207323.22538 7544027.34936 7.783000000000001 100 100 100
4207325.65438 7544029.39236 7.7330000000000005 100 100 100
4207326.331379999 7544029.32636 7.7379999999999995 100 100 100
4207323.98638 7544029.26736 7.6640000000000015 100 100 100
4207324.49138 7544027.30236 7.690000000000001 100 100 100
4207324.08438 7544032.13036 7.809000000000001 100 100 100
4207327.41338 7544029.39836 7.728999999999999 100 100 100
4207323.8773799995 7544028.34136 7.686 100 100 100
4207325.18738 7544028.05136 7.687999999999999 100 100 100
4207323.27038 7544032.53536 7.832999999999998 100 100 100
4207326.52238 7544031.33536 7.931000000000001 100 100 100
4207326.25438 7544030.78936 7.905000000000001 100 100 100
4207322.05238 7544031.86636 7.995000000000001 100 100 100
4207323.11738 7544031.11136 7.855 100 100 100
4207324.5593799995 7544027.19036 7.693000000000001 100 100 100
4207322.64338 7544031.28736 7.823 100 100 100
4207323.729379999 7544030.90836 7.824999999999999 100 100 100
4207326.4173799995 7544029.92236 7.812999999999999 100 100 100
4207322.1613799995 7544032.41436 8.071000000000002 100 100 100
4207326.55638 7544029.396360001 7.7379999999999995 100 100 100
4207324.83538 7544030.640360001 7.824999999999999 100 100 100
4207323.2523799995 7544031.31736 7.876000000000001 100 100 100
4207322.314379999 7544029.69836 7.759 100 100 100
4207308.82338 7544034.62036 16.075000000000003 100 100 100
4207307.41338 7544036.53336 14.879 100 100 100
4207309.25338 7544035.305360001 14.424 100 100 100
4207307.60538 7544036.42636 15.517 100 100 100
4207309.77138 7544033.765360001 13.501000000000001 100 100 100
4207307.17538 7544036.5433600005 15.6 100 100 100
4207307.12038 7544036.76836 16.152 100 100 100
4207306.45538 7544037.50536 15.192 100 100 100
4207309.30738 7544035.26136 13.855 100 100 100
4207309.10738 7544034.73336 15.199 100 100 100
4207309.84938 7544035.21836 13.846 100 100 100
4207309.32138 7544034.57436 14.620000000000001 100 100 100
4207309.15738 7544034.46936 15.015 100 100 100
4207306.48338 7544037.10936 13.617 100 100 100
4207308.751379999 7544034.55036 16.342 100 100 100
4207308.66838 7544035.04736 15.772 100 100 100
4207310.16538 7544035.152360001 13.850000000000001 100 100 100
4207309.65038 7544034.42136 13.789000000000001 100 100 100
4207306.96638 7544036.72836 15.937 100 100 100
4207309.09638 7544033.22136 13.524000000000001 100 100 100
4207309.46338 7544035.140360001 14.036000000000001 100 100 100
4207308.00938 7544036.04236 15.794 100 100 100
4207309.03238 7544034.169360001 15.795 100 100 100
4207309.06138 7544034.29236 15.349 100 100 100
4207309.9453799995 7544034.413360001 13.689 100 100 100
4207309.63438 7544033.72736 13.603000000000002 100 100 100
4207309.405379999 7544033.322360001 13.942 100 100 100
4207309.337379999 7544034.00236 15.104000000000001 100 100 100
4207309.6953799995 7544035.33536 13.626999999999999 100 100 100
4207309.68538 7544033.23336 14.795 100 100 100
4207308.88938 7544033.765360001 16.439 100 100 100
4207309.007379999 7544035.407360001 14.268 100 100 100
4207311.950379999 7544033.92836 14.041 100 100 100
4207311.56138 7544034.12536 14.25 100 100 100
4207312.68138 7544033.64436 13.558 100 100 100
4207310.55238 7544034.896360001 13.757000000000001 100 100 100
4207310.84638 7544034.0493600005 13.893 100 100 100
4207311.95938 7544033.71036 13.565000000000001 100 100 100
4207311.13538 7544034.67136 14.019000000000002 100 100 100
4207311.82338 7544033.69036 13.603000000000002 100 100 100
4207311.28238 7544033.55136 13.591000000000001 100 100 100
4207312.27138 7544034.19436 13.655999999999999 100 100 100
4207310.23038 7544035.90536 11.067 100 100 100
4207305.98338 7544036.97836 11.107 100 100 100
4207309.24438 7544036.09236 10.600999999999999 100 100 100
4207308.36938 7544035.81236 13.126000000000001 100 100 100
4207310.14138 7544035.71636 12.402999999999999 100 100 100
4207310.047379999 7544036.044360001 11.113 100 100 100
4207309.57938 7544036.06236 12.225999999999999 100 100 100
4207307.73338 7544037.54636 10.189 100 100 100
4207309.65838 7544035.51836 13.064 100 100 100
4207309.23338 7544035.76236 12.739 100 100 100
4207310.21338 7544035.74436 10.741 100 100 100
4207308.55138 7544035.80436 13.014 100 100 100
4207309.84038 7544033.62236 13.416 100 100 100
4207310.81038 7544033.606360001 13.447 100 100 100
4207312.28838 7544035.265360001 12.311 100 100 100
4207311.16238 7544033.14736 12.788 100 100 100
4207312.24338 7544035.28536 12.285 100 100 100
4207312.7183799995 7544033.8673600005 12.626999999999999 100 100 100
4207312.66238 7544033.91436 13.247 100 100 100
4207310.90738 7544033.19936 13.166 100 100 100
4207311.49138 7544035.31736 12.724 100 100 100
4207312.638379999 7544033.87636 13.349 100 100 100
4207313.44938 7544035.39936 10.221 100 100 100
4207311.35838 7544035.373360001 12.582 100 100 100
4207313.43638 7544034.578360001 11.282 100 100 100
4207313.40338 7544035.629360001 10.266000000000002 100 100 100
4207312.44838 7544035.25736 12.210999999999999 100 100 100
4207312.36838 7544034.3163600005 13.184000000000001 100 100 100
4207311.71438 7544035.10836 12.933 100 100 100
4207313.11138 7544035.06736 10.329 100 100 100
4207310.97138 7544034.8103600005 12.937000000000001 100 100 100
4207312.96138 7544035.04736 11.242 100 100 100
4207312.90338 7544034.99536 12.017 100 100 100
4207312.94638 7544034.69336 12.189 100 100 100
4207311.8263799995 7544036.15836 11.309999999999999 100 100 100
4207312.922379999 7544035.12436 12.229 100 100 100
4207313.0593799995 7544035.23036 12.113 100 100 100
4207320.746379999 7544038.40536 12.963000000000001 100 100 100
4207319.081379999 7544038.13936 11.388000000000002 100 100 100
4207321.74338 7544038.81236 12.628 100 100 100
4207319.848379999 7544038.29236 12.707 100 100 100
4207319.28838 7544037.96836 11.203 100 100 100
4207321.4683799995 7544038.78436 12.856000000000002 100 100 100
4207319.23638 7544038.15536 11.591000000000001 100 100 100
4207319.83538 7544037.69936 10.946000000000002 100 100 100
4207318.916379999 7544038.52236 11.669 100 100 100
4207318.76838 7544038.697360001 11.030000000000001 100 100 100
4207319.93238 7544038.7253600005 13.039000000000001 100 100 100
4207319.40238 7544038.51436 12.395 100 100 100
4207321.85638 7544038.78436 12.553 100 100 100
4207320.155379999 7544038.80036 13.126999999999999 100 100 100
4207319.90138 7544037.92236 12.335999999999999 100 100 100
4207321.376379999 7544037.66436 11.843 100 100 100
4207320.98638 7544037.67636 12.297 100 100 100
4207319.56538 7544038.13336 12.139 100 100 100
4207320.33038 7544037.419360001 11.094999999999999 100 100 100
4207321.86338 7544038.16036 10.933 100 100 100
4207321.03238 7544037.64436 12.197 100 100 100
4207320.90238 7544038.57036 13.036000000000001 100 100 100
4207318.73338 7544038.544360001 10.527000000000001 100 100 100
4207321.51238 7544037.70736 11.830000000000002 100 100 100
4207319.98038 7544037.47136 11.764 100 100 100
4207320.10738 7544037.69036 12.229 100 100 100
4207321.354379999 7544037.93236 10.378 100 100 100
4207318.638379999 7544039.57736 11.858 100 100 100
4207320.871379999 7544039.69436 13.236 100 100 100
4207321.00638 7544040.07636 13.189 100 100 100
4207318.34738 7544039.061360001 10.487000000000002 100 100 100
4207318.79538 7544039.49636 11.974 100 100 100
4207318.581379999 7544039.5263600005 11.199000000000002 100 100 100
4207318.6673799995 7544040.21336 11.309000000000001 100 100 100
4207319.45738 7544040.25536 12.657 100 100 100
4207321.848379999 7544039.55336 12.838999999999999 100 100 100
4207318.38538 7544039.49036 10.768 100 100 100
4207320.82338 7544040.1513600005 13.288 100 100 100
4207318.96938 7544039.77436 12.324000000000002 100 100 100
4207320.26138 7544039.72236 13.321000000000002 100 100 100
4207318.55738 7544039.57736 11.299 100 100 100
4207318.18638 7544039.7423600005 10.52 100 100 100
4207319.81238 7544039.947360001 13.047 100 100 100
4207319.19838 7544038.95736 12.282 100 100 100
4207319.723379999 7544040.07636 12.954 100 100 100
4207319.43538 7544040.27336 12.617999999999999 100 100 100
4207319.34738 7544040.26336 12.491 100 100 100
4207320.967379999 7544039.00736 13.114 100 100 100
4207322.530379999 7544038.54036 11.422 100 100 100
4207322.66438 7544036.70636 11.975000000000001 100 100 100
4207322.65438 7544036.86336 12.529 100 100 100
4207322.57338 7544036.998360001 11.955000000000002 100 100 100
4207322.66838 7544036.95036 13.072 100 100 100
4207322.02938 7544038.11936 11.847999999999999 100 100 100
4207322.11338 7544038.54636 12.104 100 100 100
4207322.9513799995 7544036.74036 12.394000000000002 100 100 100
4207322.56138 7544037.03436 12.689 100 100 100
4207323.22538 7544037.032360001 12.059000000000001 100 100 100
4207322.81238 7544039.3673600005 11.847000000000001 100 100 100
4207322.69338 7544039.998360001 12.122 100 100 100
4207323.28138 7544039.97736 10.655000000000001 100 100 100
4207322.166379999 7544039.90336 12.654 100 100 100
4207323.28838 7544039.76436 11.687000000000001 100 100 100
4207322.47738 7544039.13036 11.737000000000002 100 100 100
4207322.21938 7544038.93136 12.373999999999999 100 100 100
4207322.93638 7544038.92136 11.350999999999999 100 100 100
4207322.44338 7544039.78436 12.291 100 100 100
4207323.19838 7544039.629360001 11.703 100 100 100
4207322.29038 7544039.00336 12.144000000000002 100 100 100
4207323.45538 7544040.18736 11.030999999999999 100 100 100
4207322.905379999 7544040.13836 10.142 100 100 100
4207310.18138 7544037.970360001 7.960000000000001 100 100 100
4207308.97138 7544036.680360001 9.177 100 100 100
4207306.9513799995 7544037.10736 9.815999999999999 100 100 100
4207309.89238 7544037.5093600005 7.8679999999999986 100 100 100
4207310.23138 7544037.50336 7.7940000000000005 100 100 100
4207308.92038 7544037.57636 7.911999999999999 100 100 100
4207308.104379999 7544038.27836 7.966999999999999 100 100 100
4207305.96438 7544038.385360001 7.712 100 100 100
4207309.14238 7544038.12736 8.001000000000001 100 100 100
4207308.48338 7544037.12136 9.937000000000001 100 100 100
4207307.90138 7544038.4353600005 7.949000000000002 100 100 100
4207308.69438 7544037.15336 9.456 100 100 100
4207306.74838 7544039.63936 7.774000000000001 100 100 100
4207305.68538 7544040.112360001 7.82 100 100 100
4207309.90238 7544039.2933600005 8.116 100 100 100
4207307.558379999 7544039.13636 7.968 100 100 100
4207307.28938 7544039.243360001 7.913 100 100 100
4207306.65438 7544039.93736 7.841999999999999 100 100 100
4207306.098379999 7544038.88636 7.7379999999999995 100 100 100
4207308.61438 7544040.03036 8.053 100 100 100
4207308.5703799995 7544039.55736 8.09 100 100 100
4207305.09538 7544040.16736 7.968 100 100 100
4207305.64338 7544039.54536 7.808 100 100 100
4207304.99138 7544038.8163600005 7.785 100 100 100
4207309.94638 7544039.56536 8.135000000000002 100 100 100
4207304.78138 7544040.13636 7.864999999999998 100 100 100
4207307.26838 7544038.76836 7.925000000000001 100 100 100
4207305.27738 7544040.05036 7.908000000000001 100 100 100
4207315.77238 7544034.71536 7.739999999999998 100 100 100
4207315.38438 7544034.54836 9.378 100 100 100
4207315.54838 7544033.59236 9.288 100 100 100
4207315.13638 7544034.282360001 9.446000000000002 100 100 100
4207315.67038 7544037.25036 7.739999999999998 100 100 100
4207313.32238 7544037.44536 7.748000000000001 100 100 100
4207316.115379999 7544033.53936 7.707000000000001 100 100 100
4207310.58638 7544038.21836 7.943000000000001 100 100 100
4207311.04438 7544037.37036 7.763999999999999 100 100 100
4207314.32138 7544036.64836 7.646000000000001 100 100 100
4207315.13338 7544036.1853600005 9.197 100 100 100
4207314.17938 7544035.96536 9.614999999999998 100 100 100
4207316.04638 7544032.851360001 9.347000000000001 100 100 100
4207314.04938 7544035.11636 9.457999999999998 100 100 100
4207315.61638 7544033.76936 9.233 100 100 100
4207312.93138 7544036.28336 9.981000000000002 100 100 100
4207315.28438 7544037.94636 7.683 100 100 100
4207314.83838 7544035.17036 9.524000000000001 100 100 100
4207315.64538 7544038.19636 7.690999999999999 100 100 100
4207315.08438 7544034.85236 8.354 100 100 100
4207315.24138 7544037.652360001 7.690000000000001 100 100 100
4207315.1843799995 7544034.163360001 9.373000000000001 100 100 100
4207311.5593799995 7544038.03336 7.850999999999999 100 100 100
4207315.24738 7544034.64936 9.501000000000001 100 100 100
4207313.956379999 7544035.48436 9.55 100 100 100
4207314.74538 7544037.39936 7.681000000000001 100 100 100
4207315.155379999 7544036.231360001 9.196000000000002 100 100 100
4207313.95538 7544036.62536 7.9239999999999995 100 100 100
4207312.9173799995 7544037.35236 7.736000000000001 100 100 100
4207310.72838 7544037.46136 7.798000000000002 100 100 100
4207314.58638 7544033.45736 10.212 100 100 100
4207316.16938 7544035.373360001 9.45 100 100 100
4207315.51438 7544035.53036 9.481000000000002 100 100 100
4207315.65438 7544035.04736 9.354 100 100 100
4207311.43038 7544037.07436 7.722000000000001 100 100 100
4207312.98138 7544038.1683600005 7.754000000000001 100 100 100
4207313.47638 7544038.37536 7.777000000000001 100 100 100
4207315.58938 7544036.913360001 8.648 100 100 100
4207313.51638 7544035.91136 10.108 100 100 100
4207315.05238 7544034.19036 7.724 100 100 100
4207313.74938 7544035.70736 9.783999999999999 100 100 100
4207312.70438 7544033.96836 9.315000000000001 100 100 100
4207315.109379999 7544035.015360001 9.555 100 100 100
4207310.81138 7544036.18136 9.934999999999999 100 100 100
4207314.35738 7544038.37536 7.731000000000002 100 100 100
4207312.69438 7544036.96836 7.7570000000000014 100 100 100
4207311.13138 7544037.90036 7.890000000000001 100 100 100
4207310.53238 7544039.79236 8.094000000000001 100 100 100
4207314.08438 7544038.78436 7.7570000000000014 100 100 100
4207314.57838 7544039.12436 7.751999999999999 100 100 100
4207315.63738 7544039.5833600005 7.783999999999999 100 100 100
4207313.20338 7544038.89436 7.774999999999999 100 100 100
4207313.98738 7544039.96336 7.8039999999999985 100 100 100
4207314.604379999 7544038.64936 7.7379999999999995 100 100 100
4207311.3203799995 7544040.3103600005 8.035 100 100 100
4207313.51638 7544039.59936 7.785 100 100 100
4207312.56938 7544039.1683600005 7.841000000000001 100 100 100
4207310.57738 7544039.72236 8.084 100 100 100
4207314.58038 7544038.83036 7.745999999999999 100 100 100
4207311.81738 7544040.24136 8.001000000000001 100 100 100
4207314.76138 7544038.71736 7.736999999999998 100 100 100
4207313.72438 7544038.510360001 7.7620000000000005 100 100 100
4207310.84738 7544040.10836 8.075 100 100 100
4207312.20838 7544039.05736 7.8679999999999986 100 100 100
4207319.93838 7544035.14236 8.068000000000001 100 100 100
4207320.79438 7544036.038360001 7.898 100 100 100
4207321.058379999 7544035.5833600005 8.418 100 100 100
4207319.4173799995 7544038.51636 8.68 100 100 100
4207321.075379999 7544036.40636 8.538 100 100 100
4207321.4283799995 7544034.08136 8.292000000000002 100 100 100
4207317.00938 7544035.83836 8.987000000000002 100 100 100
4207318.48238 7544036.30336 8.501000000000001 100 100 100
4207318.90238 7544037.453360001 8.729 100 100 100
4207319.246379999 7544037.25036 8.431000000000001 100 100 100
4207318.56738 7544034.97936 7.786000000000001 100 100 100
4207317.91838 7544036.34636 8.497 100 100 100
4207316.8033799995 7544035.89736 9.187000000000001 100 100 100
4207317.98238 7544038.42136 8.129000000000001 100 100 100
4207317.94938 7544035.63936 8.134 100 100 100
4207319.89738 7544038.260360001 9.728000000000002 100 100 100
4207321.96638 7544036.79736 9.141000000000002 100 100 100
4207321.922379999 7544035.39736 9.455000000000002 100 100 100
4207319.90838 7544037.10736 8.007000000000001 100 100 100
4207321.206379999 7544036.45236 8.829 100 100 100
4207317.03938 7544035.623360001 8.574000000000002 100 100 100
4207318.46438 7544032.89336 7.722999999999999 100 100 100
4207321.6843799995 7544038.23036 8.09 100 100 100
4207317.61438 7544035.28936 8.027000000000001 100 100 100
4207320.53738 7544032.80436 7.925999999999998 100 100 100
4207321.23838 7544036.91536 8.094999999999999 100 100 100
4207316.44638 7544037.36036 8.527999999999999 100 100 100
4207319.56538 7544033.62836 7.812000000000001 100 100 100
4207316.64038 7544036.1853600005 9.407 100 100 100
4207320.212379999 7544034.50636 8.009 100 100 100
4207321.63738 7544038.12536 8.206 100 100 100
4207317.20938 7544035.19636 8.027000000000001 100 100 100
4207321.56838 7544033.17536 8.277999999999999 100 100 100
4207321.081379999 7544036.57536 8.09 100 100 100
4207317.55238 7544036.43436 8.785 100 100 100
4207319.3093799995 7544035.19036 7.835000000000001 100 100 100
4207321.31738 7544037.16736 8.71 100 100 100
4207319.11938 7544032.84936 7.727 100 100 100
4207318.11138 7544037.47336 8.737000000000002 100 100 100
4207317.42738 7544038.0433600005 7.6789999999999985 100 100 100
4207317.87938 7544032.81936 7.684000000000001 100 100 100
4207320.240379999 7544033.4413600005 7.984999999999999 100 100 100
4207316.899379999 7544034.63636 7.811 100 100 100
4207319.69338 7544035.03536 7.867000000000001 100 100 100
4207321.05538 7544035.92936 8.511 100 100 100
4207316.59138 7544038.26836 7.695 100 100 100
4207319.79938 7544035.64736 8.143999999999998 100 100 100
4207319.80138 7544035.37136 8.087 100 100 100
4207316.62238 7544035.24036 8.023 100 100 100
4207319.43638 7544038.57436 8.856000000000002 100 100 100
4207321.73238 7544035.42236 8.641000000000002 100 100 100
4207317.0193799995 7544038.47236 7.692 100 100 100
4207317.149379999 7544034.38136 7.7429999999999986 100 100 100
4207320.75538 7544033.76936 8.106000000000002 100 100 100
4207316.61338 7544036.78336 9.519000000000002 100 100 100
4207316.95838 7544036.17536 9.257000000000001 100 100 100
4207316.462379999 7544035.86436 9.338000000000001 100 100 100
4207317.18038 7544037.44336 7.818999999999999 100 100 100
4207320.25838 7544034.32636 8.027000000000001 100 100 100
4207319.73838 7544037.98036 8.466000000000001 100 100 100
4207319.56838 7544038.5263600005 9.085999999999999 100 100 100
4207318.99238 7544037.65636 8.699000000000002 100 100 100
4207318.06838 7544036.82536 8.841000000000001 100 100 100
4207317.15338 7544033.521360001 7.713000000000001 100 100 100
4207318.5193799995 7544035.34936 7.891000000000002 100 100 100
4207317.28438 7544036.08436 8.652000000000001 100 100 100
4207316.60238 7544035.265360001 9.227 100 100 100
4207321.94338 7544035.35936 9.57 100 100 100
4207321.34438 7544037.322360001 8.376999999999999 100 100 100
4207318.58338 7544035.828360001 7.93 100 100 100
4207319.717379999 7544037.75336 8.459 100 100 100
4207316.837379999 7544033.70236 7.731999999999999 100 100 100
4207319.23138 7544032.89536 7.713999999999999 100 100 100
4207318.65238 7544037.9923600005 8.663 100 100 100
4207317.58538 7544035.7423600005 8.332999999999998 100 100 100
4207321.40438 7544037.163360001 8.925999999999998 100 100 100
4207320.35638 7544038.03336 7.9609999999999985 100 100 100
4207318.46338 7544033.25536 7.713999999999999 100 100 100
4207318.59738 7544033.640360001 7.718 100 100 100
4207321.60838 7544033.7933600005 8.376999999999999 100 100 100
4207317.38138 7544036.75836 9.448 100 100 100
4207318.71538 7544039.146360001 8.673000000000002 100 100 100
4207318.98838 7544038.93936 8.629000000000001 100 100 100
4207318.57138 7544039.42636 9.084 100 100 100
4207318.200379999 7544039.055360001 8.393999999999998 100 100 100
4207318.56138 7544038.81436 8.489999999999998 100 100 100
4207318.43238 7544039.86536 9.199000000000002 100 100 100
4207318.42338 7544039.80036 8.364 100 100 100
4207321.68038 7544039.37736 8.011 100 100 100
4207319.53938 7544038.77836 9.422 100 100 100
4207318.6783799995 7544039.14436 9.510000000000002 100 100 100
4207316.274379999 7544038.56236 7.698 100 100 100
4207316.314379999 7544039.49436 7.763999999999999 100 100 100
4207318.83238 7544038.74936 8.518999999999998 100 100 100
4207320.95938 7544038.68336 8.138000000000002 100 100 100
4207317.71338 7544038.92136 7.8870000000000005 100 100 100
4207318.74238 7544038.83436 9.898 100 100 100
4207318.31338 7544039.91536 9.552 100 100 100
4207318.93038 7544038.9753600005 9.363 100 100 100
4207318.19438 7544040.01436 9.968 100 100 100
4207318.05038 7544039.66136 7.782 100 100 100
4207318.74238 7544038.68136 8.507000000000001 100 100 100
4207326.56538 7544035.83636 8.187000000000001 100 100 100
4207322.73738 7544033.66236 8.36 100 100 100
4207323.22438 7544036.45036 9.562000000000001 100 100 100
4207327.40738 7544034.17336 8.283999999999999 100 100 100
4207327.44238 7544035.38936 8.495000000000001 100 100 100
4207323.42038 7544037.06436 8.431999999999999 100 100 100
4207323.01838 7544037.08436 9.571000000000002 100 100 100
4207324.3033799995 7544033.55936 7.850999999999999 100 100 100
4207322.79638 7544037.68836 9.2 100 100 100
4207325.71538 7544038.43736 8.512 100 100 100
4207324.84638 7544032.84136 7.8969999999999985 100 100 100
4207327.683379999 7544037.1513600005 8.465 100 100 100
4207325.70938 7544036.16036 8.035 100 100 100
4207322.27738 7544036.07036 9.668 100 100 100
4207327.29338 7544037.58036 8.744 100 100 100
4207327.48138 7544033.20736 8.091999999999999 100 100 100
4207322.17738 7544033.288360001 8.239999999999998 100 100 100
4207322.59138 7544033.93236 8.924 100 100 100
4207322.09738 7544037.8843600005 9.14 100 100 100
4207323.55138 7544038.01936 8.485 100 100 100
4207326.99138 7544035.54036 8.425 100 100 100
4207326.73638 7544037.23536 8.420000000000002 100 100 100
4207323.16438 7544036.65636 9.012 100 100 100
4207327.74138 7544034.7933600005 8.384 100 100 100
4207323.71538 7544033.652360001 7.8969999999999985 100 100 100
4207323.75838 7544034.19436 7.896000000000001 100 100 100
4207322.706379999 7544037.95436 9.129000000000001 100 100 100
4207322.05438 7544035.19236 8.294 100 100 100
4207323.17538 7544036.69236 8.326 100 100 100
4207324.734379999 7544037.64236 7.943000000000001 100 100 100
4207322.82738 7544036.31936 9.056000000000001 100 100 100
4207322.757379999 7544034.135360001 9.769000000000002 100 100 100
4207327.4283799995 7544034.21836 8.295000000000002 100 100 100
4207322.67338 7544036.515360001 10.116 100 100 100
4207322.43738 7544034.49036 8.567 100 100 100
4207322.66338 7544033.93236 8.645 100 100 100
4207322.64138 7544035.97136 8.100000000000001 100 100 100
4207323.17438 7544036.86936 9.704 100 100 100
4207325.825379999 7544035.59136 7.998999999999999 100 100 100
4207323.41938 7544034.23836 7.893000000000001 100 100 100
4207323.51238 7544033.56336 7.936 100 100 100
4207326.59538 7544037.79136 8.582999999999998 100 100 100
4207322.6783799995 7544036.8673600005 9.713999999999999 100 100 100
4207322.5193799995 7544036.1913600005 10.033999999999999 100 100 100
4207327.04538 7544034.061360001 8.347999999999999 100 100 100
4207326.1673799995 7544034.05136 8.242 100 100 100
4207326.39138 7544033.99036 8.321000000000002 100 100 100
4207322.1273799995 7544034.08536 8.309000000000001 100 100 100
4207325.22038 7544038.510360001 8.317 100 100 100
4207323.11338 7544036.33036 9.488 100 100 100
4207323.52638 7544035.72836 7.844000000000001 100 100 100
4207322.91338 7544034.10936 8.565999999999999 100 100 100
4207322.44138 7544034.186360001 8.434999999999999 100 100 100
4207326.60838 7544036.487360001 8.120999999999999 100 100 100
4207323.13138 7544036.42636 8.396 100 100 100
4207323.11738 7544035.80636 7.98 100 100 100
4207323.62238 7544034.19436 7.895 100 100 100
4207322.507379999 7544034.44936 9.760000000000002 100 100 100
4207323.26438 7544033.35836 7.940000000000001 100 100 100
4207323.02738 7544033.83136 8.485 100 100 100
4207325.6953799995 7544038.22236 8.378 100 100 100
4207326.18238 7544036.652360001 7.937000000000001 100 100 100
4207323.2923799995 7544037.998360001 9.081 100 100 100
4207323.40038 7544037.00636 8.280999999999999 100 100 100
4207326.67538 7544036.53536 8.158000000000001 100 100 100
4207323.33238 7544033.36036 7.940000000000001 100 100 100
4207327.63338 7544034.19236 8.245999999999999 100 100 100
4207327.65238 7544034.63036 8.350000000000001 100 100 100
4207327.20438 7544033.96836 8.288 100 100 100
4207322.26138 7544034.90836 8.112000000000002 100 100 100
4207327.621379999 7544035.81836 8.498000000000001 100 100 100
4207325.81038 7544033.6743600005 8.072 100 100 100
4207321.98938 7544035.37736 9.506 100 100 100
4207325.06638 7544034.3103600005 7.861999999999998 100 100 100
4207326.43138 7544035.78636 8.137 100 100 100
4207323.26638 7544036.68836 9.709 100 100 100
4207327.56138 7544034.4923600005 8.327000000000002 100 100 100
4207323.4853799995 7544034.936360001 7.838000000000001 100 100 100
4207323.18638 7544035.64536 7.9460000000000015 100 100 100
4207323.45338 7544036.396360001 8.004999999999999 100 100 100
4207322.97638 7544036.2933600005 9.577000000000002 100 100 100
4207325.42538 7544034.339360001 7.939 100 100 100
4207324.41838 7544032.92936 7.893000000000001 100 100 100
4207324.13638 7544035.703360001 7.7719999999999985 100 100 100
4207326.74438 7544035.73036 8.292000000000002 100 100 100
4207326.83838 7544034.83436 8.391000000000002 100 100 100
4207324.42938 7544036.13236 7.7379999999999995 100 100 100
4207324.50638 7544033.64836 7.824999999999999 100 100 100
4207326.62438 7544037.29636 8.355 100 100 100
4207327.166379999 7544036.76636 8.485 100 100 100
4207325.89038 7544035.88936 8.043 100 100 100
4207327.26638 7544038.288360001 8.841000000000001 100 100 100
4207322.61738 7544034.010360001 8.757000000000001 100 100 100
4207326.60538 7544038.782360001 9.104 100 100 100
4207326.62838 7544038.73336 9.055 100 100 100
4207324.89338 7544039.07436 8.898 100 100 100
4207324.4173799995 7544038.95536 9.114 100 100 100
4207324.13738 7544039.94536 9.341000000000001 100 100 100
4207325.467379999 7544039.20236 9.608 100 100 100
4207325.490379999 7544039.20236 9.620000000000001 100 100 100
4207324.22438 7544038.79036 8.469999999999999 100 100 100
4207324.22738 7544039.879360001 9.369 100 100 100
4207326.922379999 7544038.73336 9.043 100 100 100
4207324.729379999 7544039.1683600005 9.224 100 100 100
4207324.77838 7544039.01736 9.013000000000002 100 100 100
4207327.21538 7544040.19536 10.061 100 100 100
4207326.29638 7544039.54536 9.908000000000001 100 100 100
4207327.01438 7544039.9413600005 10.016000000000002 100 100 100
4207327.40138 7544039.90336 9.791 100 100 100
4207325.01138 7544040.02036 9.686 100 100 100
4207323.33838 7544039.10236 8.748999999999999 100 100 100
4207324.54338 7544038.6003600005 8.324000000000002 100 100 100
4207326.27238 7544039.56936 9.920000000000002 100 100 100
4207324.76138 7544038.92536 8.736 100 100 100
4207327.3773799995 7544040.00236 9.915 100 100 100
4207325.73638 7544039.23536 9.735 100 100 100
4207324.73038 7544039.11636 9.149000000000001 100 100 100
4207325.9283799995 7544038.89236 9.11 100 100 100
4207325.77238 7544040.02836 10.045000000000002 100 100 100
4207323.53738 7544039.589360001 8.89 100 100 100
4207329.9283799995 7544006.87136 13.193000000000001 100 100 100
4207329.43038 7544008.23036 11.521 100 100 100
4207330.50838 7544007.48336 12.027000000000001 100 100 100
4207330.12838 7544006.73236 11.992999999999999 100 100 100
4207329.93638 7544006.61136 12.780999999999999 100 100 100
4207330.17738 7544007.265360001 13.007000000000001 100 100 100
4207329.17438 7544007.47136 12.236 100 100 100
4207330.53738 7544007.49736 11.646999999999998 100 100 100
4207329.58238 7544007.55136 12.084 100 100 100
4207330.67938 7544007.63636 12.532 100 100 100
4207333.42538 7544008.572360001 11.356000000000002 100 100 100
4207329.98838 7544006.60336 12.376000000000001 100 100 100
4207330.42038 7544007.68836 13.213999999999999 100 100 100
4207328.62038 7544007.02436 11.762 100 100 100
4207328.46438 7544006.8163600005 11.703 100 100 100
4207333.359379999 7544008.43336 11.309000000000001 100 100 100
4207330.10738 7544007.61436 11.705000000000002 100 100 100
4207334.83638 7544008.36136 12.041 100 100 100
4207334.41938 7544007.46536 11.604 100 100 100
4207334.03338 7544008.9583600005 11.312000000000001 100 100 100
4207334.75638 7544007.55936 11.629000000000001 100 100 100
4207334.15138 7544007.243360001 11.393 100 100 100
4207334.32138 7544008.652360001 11.727 100 100 100
4207329.59138 7544003.754360001 9.844999999999999 100 100 100
4207329.68238 7544003.57136 9.799 100 100 100
4207330.56038 7544003.69236 9.876999999999999 100 100 100
4207332.331379999 7544003.13836 9.354 100 100 100
4207330.14538 7544003.09836 9.23 100 100 100
4207329.23338 7544003.35836 9.713000000000001 100 100 100
4207328.12238 7544003.40036 10.023 100 100 100
4207332.27838 7544003.88336 9.602 100 100 100
4207328.68638 7544003.78136 9.953 100 100 100
4207333.10538 7544002.48836 9.108 100 100 100
4207329.183379999 7544003.82736 9.917000000000002 100 100 100
4207330.13538 7544003.38836 9.754999999999999 100 100 100
4207333.23238 7544003.2593600005 9.394000000000002 100 100 100
4207331.41538 7544002.24536 8.991 100 100 100
4207331.456379999 7544002.20236 9.297 100 100 100
4207329.20838 7544003.59136 9.809000000000001 100 100 100
4207328.51138 7544003.18136 9.815000000000001 100 100 100
4207332.84638 7544003.53736 9.512 100 100 100
4207332.02338 7544005.6003600005 9.584 100 100 100
4207328.79038 7544005.68336 9.945 100 100 100
4207329.558379999 7544007.05236 10.917000000000002 100 100 100
4207331.28238 7544005.8503600005 9.344999999999999 100 100 100
4207328.43138 7544005.14536 10.02 100 100 100
4207332.36338 7544005.947360001 9.399000000000001 100 100 100
4207331.01038 7544004.52536 9.77 100 100 100
4207330.490379999 7544006.60936 7.8260000000000005 100 100 100
4207331.1673799995 7544005.10336 9.642 100 100 100
4207333.03938 7544005.30736 9.571000000000002 100 100 100
4207329.19838 7544005.87836 9.828 100 100 100
4207329.86638 7544006.9013600005 10.123000000000001 100 100 100
4207329.85538 7544007.29236 7.920000000000002 100 100 100
4207329.06138 7544005.55436 10.026 100 100 100
4207327.93738 7544004.24436 10.114999999999998 100 100 100
4207331.64238 7544006.89136 9.043 100 100 100
4207332.29838 7544004.16136 9.684000000000001 100 100 100
4207330.81738 7544007.5493600005 9.681000000000001 100 100 100
4207330.1673799995 7544007.50536 8.018 100 100 100
4207329.51638 7544006.13636 9.620999999999999 100 100 100
4207331.46938 7544007.43236 9.891000000000002 100 100 100
4207328.74738 7544004.67836 10.109000000000002 100 100 100
4207328.996379999 7544004.2763600005 10.184000000000001 100 100 100
4207331.68238 7544004.92036 9.89 100 100 100
4207332.11238 7544007.618360001 10.511 100 100 100
4207333.32238 7544007.0263600005 8.389 100 100 100
4207329.52938 7544006.71036 10.024999999999999 100 100 100
4207329.85038 7544006.822360001 9.693999999999999 100 100 100
4207330.60638 7544007.54736 8.818000000000001 100 100 100
4207331.16038 7544007.45736 9.381 100 100 100
4207331.44238 7544006.85336 8.878 100 100 100
4207332.15838 7544005.294360001 9.706 100 100 100
4207332.751379999 7544004.02436 9.664000000000001 100 100 100
4207332.31638 7544005.35736 9.667000000000002 100 100 100
4207331.405379999 7544007.36436 9.613 100 100 100
4207330.547379999 7544007.56936 8.234000000000002 100 100 100
4207329.40138 7544006.88936 10.869 100 100 100
4207328.27238 7544005.19236 10.068000000000001 100 100 100
4207327.88938 7544005.697360001 9.889 100 100 100
4207332.229379999 7544006.05336 9.295000000000002 100 100 100
4207329.13438 7544004.08536 10.036999999999999 100 100 100
4207328.22838 7544004.63036 10.108 100 100 100
4207329.03938 7544005.74936 9.907 100 100 100
4207331.32438 7544005.01936 9.721 100 100 100
4207330.3773799995 7544007.3843600005 9.049 100 100 100
4207331.05638 7544005.62736 9.413 100 100 100
4207330.69738 7544006.45236 8.998000000000001 100 100 100
4207331.51238 7544007.32636 9.995000000000001 100 100 100
4207328.59438 7544007.00236 7.756 100 100 100
4207331.44938 7544007.13236 8.389 100 100 100
4207333.74838 7544003.62836 9.463999999999999 100 100 100
4207333.94338 7544005.39936 8.09 100 100 100
4207334.17438 7544004.95236 9.294 100 100 100
4207334.31038 7544005.3333600005 7.802 100 100 100
4207330.57738 7544003.33236 7.59 100 100 100
4207330.98638 7544002.71836 7.5440000000000005 100 100 100
4207328.9343799995 7544002.464360001 7.577999999999999 100 100 100
4207328.598379999 7544002.00736 7.536999999999999 100 100 100
4207329.67538 7544003.12636 7.6030000000000015 100 100 100
4207328.09638 7544003.45436 7.536000000000001 100 100 100
4207330.53538 7544002.49436 7.5859999999999985 100 100 100
4207330.30638 7544003.17336 7.606000000000002 100 100 100
4207330.87538 7544002.06736 7.585000000000001 100 100 100
4207329.56338 7544003.05636 7.591999999999999 100 100 100
4207331.37038 7544002.78636 7.5070000000000014 100 100 100
4207331.03338 7544002.1343600005 7.584 100 100 100
4207333.60638 7544002.07536 7.5489999999999995 100 100 100
4207327.962379999 7544008.80136 7.327999999999999 100 100 100
4207330.308379999 7544008.0833600005 7.599 100 100 100
4207329.38338 7544008.81336 7.411000000000001 100 100 100
4207329.88038 7544007.69836 7.593 100 100 100
4207333.467379999 7544007.805360001 7.635000000000002 100 100 100
4207329.88138 7544007.51936 7.623000000000001 100 100 100
4207332.99238 7544008.18336 7.571999999999999 100 100 100
4207327.962379999 7544008.89236 7.338000000000001 100 100 100
4207330.28338 7544008.95636 7.463000000000001 100 100 100
4207332.22238 7544009.50236 7.396000000000001 100 100 100
4207329.74238 7544008.83836 7.449999999999999 100 100 100
4207333.28138 7544009.46636 7.466000000000001 100 100 100
4207333.21438 7544009.32936 7.469000000000001 100 100 100
4207330.78238 7544008.04036 7.577000000000002 100 100 100
4207330.23938 7544008.3103600005 7.593 100 100 100
4207331.63638 7544009.34336 7.434999999999999 100 100 100
4207328.234379999 7544008.578360001 7.373000000000001 100 100 100
4207328.75438 7544007.86536 7.494 100 100 100
4207331.5703799995 7544008.55636 7.492000000000001 100 100 100
4207330.21538 7544008.868360001 7.503 100 100 100
4207332.98938 7544009.03736 7.5 100 100 100
4207332.40438 7544008.56436 7.547000000000001 100 100 100
4207334.95538 7544003.118360001 7.5169999999999995 100 100 100
4207334.28138 7544002.50836 7.5539999999999985 100 100 100
4207334.61838 7544002.754360001 7.524000000000001 100 100 100
4207333.82938 7544002.57336 7.562999999999999 100 100 100
4207334.57438 7544007.4413600005 7.548000000000002 100 100 100
4207334.547379999 7544009.03936 7.431999999999999 100 100 100
4207334.4113799995 7544009.19636 7.440000000000001 100 100 100
4207334.76238 7544005.48436 7.699000000000002 100 100 100
4207334.42038 7544005.98336 7.734999999999999 100 100 100
4207334.484379999 7544007.24136 7.591000000000001 100 100 100
4207334.092379999 7544003.89736 7.684000000000001 100 100 100
4207334.84938 7544006.29536 7.629000000000001 100 100 100
4207334.70538 7544009.01736 7.434000000000001 100 100 100
4207334.95538 7544008.52036 7.434999999999999 100 100 100
4207334.83938 7544009.53436 7.384 100 100 100
4207329.65038 7544020.71936 14.055 100 100 100
4207329.78838 7544020.17236 14.018 100 100 100
4207329.223379999 7544020.68336 13.926000000000002 100 100 100
4207330.65738 7544018.91236 10.908999999999999 100 100 100
4207330.83338 7544020.589360001 12.073 100 100 100
4207328.1613799995 7544019.62636 12.907 100 100 100
4207329.14038 7544019.811360001 13.757000000000001 100 100 100
4207329.73338 7544019.49136 13.401 100 100 100
4207330.03338 7544018.805360001 11.859000000000002 100 100 100
4207328.84538 7544020.14836 13.747 100 100 100
4207330.0933799995 7544019.743360001 13.422 100 100 100
4207329.29638 7544019.15936 12.658000000000001 100 100 100
4207329.69838 7544019.20436 12.937999999999999 100 100 100
4207329.49838 7544019.163360001 12.697 100 100 100
4207329.66038 7544019.69536 13.7 100 100 100
4207330.19638 7544020.67736 13.792000000000002 100 100 100
4207330.837379999 7544019.70536 12.044 100 100 100
4207330.45838 7544020.14436 13.059000000000001 100 100 100
4207328.15838 7544019.16136 11.879000000000001 100 100 100
4207328.68838 7544018.82536 11.332 100 100 100
4207328.97138 7544018.82936 11.928999999999998 100 100 100
4207328.99738 7544018.74636 11.741 100 100 100
4207328.37838 7544019.16536 12.197 100 100 100
4207331.48638 7544020.97736 10.646999999999998 100 100 100
4207330.35038 7544020.055360001 12.780999999999999 100 100 100
4207329.94838 7544018.62436 11.584 100 100 100
4207328.5023799995 7544019.42136 12.863 100 100 100
4207329.23938 7544019.10936 12.024999999999999 100 100 100
4207328.17038 7544019.14936 11.144000000000002 100 100 100
4207329.348379999 7544019.49936 13.538 100 100 100
4207328.371379999 7544018.94036 11.364999999999998 100 100 100
4207330.11738 7544019.75736 13.306999999999999 100 100 100
4207329.49538 7544021.277360001 13.698 100 100 100
4207330.29438 7544019.53636 12.236 100 100 100
4207329.04438 7544018.73836 11.64 100 100 100
4207329.88738 7544018.50536 11.219000000000001 100 100 100
4207330.84438 7544021.38036 11.204 100 100 100
4207328.46638 7544018.89336 11.036999999999999 100 100 100
4207330.18738 7544019.0833600005 11.942 100 100 100
4207330.20738 7544019.27436 12.077000000000002 100 100 100
4207330.996379999 7544020.61536 11.806999999999999 100 100 100
4207329.46438 7544018.47136 10.825 100 100 100
4207328.530379999 7544020.96536 13.510000000000002 100 100 100
4207330.92438 7544020.41136 12.091000000000001 100 100 100
4207331.109379999 7544020.2993600005 11.828 100 100 100
4207330.8603799995 7544020.83636 11.763000000000002 100 100 100
4207329.49438 7544018.65836 11.745999999999999 100 100 100
4207330.31538 7544020.24636 13.486 100 100 100
4207330.85638 7544020.10336 12.199000000000002 100 100 100
4207330.73638 7544020.82436 12.46 100 100 100
4207328.83638 7544019.21836 13.149000000000001 100 100 100
4207330.11838 7544019.731360001 13.27 100 100 100
4207330.90438 7544020.59936 11.896 100 100 100
4207330.92938 7544019.74536 11.98 100 100 100
4207328.81038 7544022.578360001 13.865000000000002 100 100 100
4207328.28838 7544022.80936 13.945 100 100 100
4207328.33338 7544022.61436 14.052 100 100 100
4207329.85038 7544024.21236 11.864999999999998 100 100 100
4207330.70938 7544023.5263600005 10.580000000000002 100 100 100
4207329.89538 7544022.35836 11.023 100 100 100
4207328.95538 7544023.2423600005 13.100999999999999 100 100 100
4207330.50438 7544024.97736 11.773 100 100 100
4207330.38338 7544021.57736 11.704 100 100 100
4207330.70538 7544025.11436 11.783000000000001 100 100 100
4207330.87338 7544021.92736 10.658000000000001 100 100 100
4207332.84738 7544024.29536 10.75 100 100 100
4207328.50038 7544023.72936 11.831 100 100 100
4207329.49938 7544022.38836 13.138000000000002 100 100 100
4207328.63138 7544022.32436 13.818999999999999 100 100 100
4207330.774379999 7544024.953360001 11.737000000000002 100 100 100
4207330.092379999 7544024.97936 12.100000000000001 100 100 100
4207329.39638 7544024.05336 12.158000000000001 100 100 100
4207331.87438 7544024.69936 10.760000000000002 100 100 100
4207333.27638 7544024.02536 10.745999999999999 100 100 100
4207329.72738 7544023.07336 11.474 100 100 100
4207328.22538 7544023.2763600005 13.565999999999999 100 100 100
4207329.49738 7544022.71236 13.218 100 100 100
4207328.52338 7544021.794360001 13.68 100 100 100
4207329.64738 7544022.08836 11.053999999999998 100 100 100
4207328.25338 7544021.65836 13.719999999999999 100 100 100
4207330.598379999 7544024.33536 11.663 100 100 100
4207328.22438 7544023.46336 12.204 100 100 100
4207329.77838 7544024.657360001 12.043 100 100 100
4207331.263379999 7544024.1743600005 11.023 100 100 100
4207330.39738 7544023.72736 11.713999999999999 100 100 100
4207329.44038 7544023.50036 12.335999999999999 100 100 100
4207329.43738 7544023.578360001 12.460999999999999 100 100 100
4207332.91538 7544024.58136 10.654 100 100 100
4207329.48238 7544024.67136 12.244 100 100 100
4207329.3943799995 7544023.75336 12.367999999999999 100 100 100
4207329.27838 7544024.09836 12.448 100 100 100
4207328.83438 7544022.48336 13.817 100 100 100
4207329.61338 7544024.95536 12.39 100 100 100
4207330.581379999 7544023.55236 11.492 100 100 100
4207330.33538 7544021.76836 11.826 100 100 100
4207329.37938 7544023.004360001 12.056999999999999 100 100 100
4207330.25938 7544024.271360001 11.738 100 100 100
4207329.76538 7544022.28436 12.088999999999999 100 100 100
4207332.757379999 7544024.40636 10.721 100 100 100
4207328.564379999 7544023.22836 13.504999999999999 100 100 100
4207334.71338 7544026.01836 10.678999999999998 100 100 100
4207334.78338 7544025.33836 10.683 100 100 100
4207334.50838 7544025.89136 10.82 100 100 100
4207334.49838 7544023.63736 10.648 100 100 100
4207334.57438 7544026.38636 10.771 100 100 100
4207331.97638 7544012.169360001 7.937999999999999 100 100 100
4207329.15338 7544013.32136 7.780000000000001 100 100 100
4207329.72038 7544014.01636 8.818999999999999 100 100 100
4207330.87538 7544013.64536 8.643999999999998 100 100 100
4207331.87938 7544012.55236 8.232 100 100 100
4207330.53838 7544014.805360001 9.614999999999998 100 100 100
4207329.56238 7544012.7593600005 7.795999999999999 100 100 100
4207330.52938 7544012.8843600005 7.899999999999999 100 100 100
4207331.52138 7544012.67336 8.05 100 100 100
4207328.59738 7544011.998360001 7.670000000000002 100 100 100
4207331.85538 7544012.669360001 8.267 100 100 100
4207331.609379999 7544014.84736 8.934999999999999 100 100 100
4207328.83238 7544015.2763600005 7.629000000000001 100 100 100
4207329.80638 7544012.91036 7.997 100 100 100
4207329.19038 7544013.601360001 8.192 100 100 100
4207329.26538 7544013.39736 7.879999999999999 100 100 100
4207333.13738 7544012.737360001 8.488 100 100 100
4207332.34038 7544014.032360001 8.604 100 100 100
4207328.933379999 7544012.54236 7.672000000000001 100 100 100
4207332.81538 7544014.05236 8.555 100 100 100
4207330.46938 7544015.14536 9.619 100 100 100
4207331.46638 7544013.35936 8.437999999999999 100 100 100
4207331.40138 7544015.07036 9.193999999999999 100 100 100
4207331.97438 7544014.163360001 8.852 100 100 100
4207332.95338 7544013.6853600005 8.475999999999999 100 100 100
4207329.08838 7544014.21536 8.798000000000002 100 100 100
4207328.73838 7544014.31536 8.058 100 100 100
4207329.24838 7544015.33036 9.735 100 100 100
4207329.297379999 7544011.90836 7.651 100 100 100
4207330.36738 7544014.521360001 9.165 100 100 100
4207329.77138 7544011.77336 7.631 100 100 100
4207333.27238 7544012.6513600005 8.553999999999998 100 100 100
4207333.49238 7544011.17336 7.869 100 100 100
4207332.36338 7544014.09636 8.564 100 100 100
4207333.63038 7544013.663360001 8.455000000000002 100 100 100
4207331.65338 7544012.731360001 8.201 100 100 100
4207330.831379999 7544013.46036 8.61 100 100 100
4207328.098379999 7544012.18436 7.765000000000001 100 100 100
4207332.73038 7544013.18236 8.424 100 100 100
4207329.32838 7544013.504360001 8.081 100 100 100
4207329.88038 7544012.3673600005 7.7059999999999995 100 100 100
4207331.44238 7544015.46736 9.350000000000001 100 100 100
4207333.092379999 7544012.82636 8.472999999999999 100 100 100
4207331.72638 7544014.1853600005 8.850000000000001 100 100 100
4207330.29338 7544013.17836 8.487000000000002 100 100 100
4207330.342379999 7544014.48536 9.292000000000002 100 100 100
4207330.22538 7544013.13236 8.488 100 100 100
4207332.3773799995 7544014.75636 8.89 100 100 100
4207333.40738 7544012.36536 8.649999999999999 100 100 100
4207331.36638 7544014.33436 8.756 100 100 100
4207332.10138 7544012.657360001 8.408000000000001 100 100 100
4207333.08438 7544014.50536 8.533000000000001 100 100 100
4207332.66338 7544018.487360001 9.713000000000001 100 100 100
4207329.47438 7544016.94936 7.870000000000001 100 100 100
4207329.18038 7544018.45136 10.291 100 100 100
4207332.91038 7544020.913360001 7.751999999999999 100 100 100
4207328.84438 7544016.71936 7.834 100 100 100
4207333.05238 7544017.74036 8.237000000000002 100 100 100
4207332.575379999 7544020.21236 7.768000000000001 100 100 100
4207329.0193799995 7544018.46736 10.506 100 100 100
4207330.80238 7544019.06936 10.297 100 100 100
4207327.91038 7544019.02036 7.811 100 100 100
4207332.70538 7544019.123360001 9.735 100 100 100
4207331.20738 7544019.69336 10.157 100 100 100
4207329.848379999 7544017.83536 9.625 100 100 100
4207331.91238 7544019.3163600005 9.928999999999998 100 100 100
4207328.206379999 7544017.67836 7.984999999999999 100 100 100
4207328.44338 7544015.82736 7.753 100 100 100
4207333.55538 7544017.907360001 7.754000000000001 100 100 100
4207333.5363799995 7544017.31736 7.716999999999999 100 100 100
4207333.02838 7544017.78636 8.261 100 100 100
4207329.59738 7544015.98436 10.253 100 100 100
4207330.18838 7544017.11636 9.657 100 100 100
4207332.13738 7544020.31936 9.715 100 100 100
4207332.73338 7544018.12436 9.671 100 100 100
4207333.13738 7544020.68736 7.734000000000002 100 100 100
4207331.26738 7544019.97136 10.530999999999999 100 100 100
4207328.21938 7544018.37836 9.705000000000002 100 100 100
