4207327.030379999 7544028.351360001 30.096 200 200 200
4207327.02938 7544028.39836 30.133 200 200 200
4207324.63938 7544028.53936 30.028000000000002 200 200 200
4207327.00838 7544028.46036 30.043 200 200 200
4207325.36238 7544028.40836 30.061 200 200 200
4207326.85238 7544028.47236 29.915 200 200 200
4207323.547379999 7544030.856360001 31.347 200 200 200
4207327.24338 7544034.453360001 32.001 200 200 200
4207326.73138 7544031.63136 32.398 200 200 200
4207324.62938 7544033.07636 32.173 200 200 200
4207327.27038 7544029.23536 30.393 200 200 200
4207325.37338 7544029.30436 30.52 200 200 200
4207324.77938 7544034.46936 32.317 200 200 200
4207325.31038 7544028.76636 30.292 200 200 200
4207325.62038 7544032.97836 32.32 200 200 200
4207326.587379999 7544034.19036 32.156 200 200 200
4207323.683379999 7544029.487360001 30.329 200 200 200
4207322.73638 7544030.92036 31.329 200 200 200
4207323.72138 7544029.54536 30.785 200 200 200
4207327.35538 7544033.74536 32.209 200 200 200
4207325.17538 7544030.11936 31.387 200 200 200
4207326.32138 7544031.731360001 32.532000000000004 200 200 200
4207325.121379999 7544030.55836 31.782 200 200 200
4207322.60538 7544030.96036 30.985 200 200 200
4207326.61738 7544030.21636 31.392 200 200 200
4207326.72438 7544033.4353600005 32.315 200 200 200
4207323.13338 7544029.612360001 30.805 200 200 200
4207323.34538 7544030.765360001 31.349 200 200 200
4207325.13938 7544031.09136 31.933 200 200 200
4207324.422379999 7544030.75336 31.71 200 200 200
4207325.14738 7544032.13236 32.516 200 200 200
4207326.331379999 7544029.98236 31.016000000000002 200 200 200
4207326.86138 7544033.29236 32.230000000000004 200 200 200
4207323.263379999 7544030.03636 30.998 200 200 200
4207324.63138 7544032.80236 32.155 200 200 200
4207323.479379999 7544031.9013600005 31.106 200 200 200
4207326.11438 7544029.50136 30.672 200 200 200
4207325.32838 7544032.90536 32.27 200 200 200
4207323.88038 7544032.59736 29.861 200 200 200
4207326.15338 7544030.69936 32.1 200 200 200
4207325.00338 7544031.06536 31.908 200 200 200
4207324.80138 7544031.35336 31.836000000000002 200 200 200
4207325.24338 7544028.88136 30.327 200 200 200
4207323.74238 7544029.57336 30.835 200 200 200
4207326.26138 7544029.90836 31.233 200 200 200
4207326.55538 7544031.07536 32.233000000000004 200 200 200
4207322.97138 7544030.03636 31.01 200 200 200
4207325.55238 7544031.82636 32.64 200 200 200
4207324.467379999 7544030.75336 31.723 200 200 200
4207323.69638 7544029.57336 30.847 200 200 200
4207323.71038 7544030.24036 31.275000000000002 200 200 200
4207324.81738 7544030.00836 31.147000000000002 200 200 200
4207324.82338 7544031.33136 31.862000000000002 200 200 200
4207323.68138 7544031.464360001 31.295 200 200 200
4207326.20238 7544030.3673600005 31.906 200 200 200
4207326.82138 7544029.00036 30.307000000000002 200 200 200
4207326.6843799995 7544029.27536 30.363 200 200 200
4207325.1783799995 7544030.01436 31.187 200 200 200
4207325.02538 7544029.811360001 30.925 200 200 200
4207323.0023799995 7544029.640360001 30.576 200 200 200
4207324.30238 7544032.64536 31.612000000000002 200 200 200
4207327.17538 7544034.52036 32.012 200 200 200
4207326.72038 7544030.39936 31.984 200 200 200
4207325.73238 7544032.69436 32.442 200 200 200
4207325.7013799995 7544029.81936 31.004 200 200 200
4207326.97838 7544029.13836 30.330000000000002 200 200 200
4207323.84638 7544029.37636 30.067 200 200 200
4207326.814379999 7544032.635360001 32.487 200 200 200
4207323.63638 7544031.70536 31.188000000000002 200 200 200
4207325.36738 7544034.19436 32.276 200 200 200
4207324.97138 7544031.95536 32.304 200 200 200
4207326.1673799995 7544031.44836 32.412 200 200 200
4207325.064379999 7544034.15536 31.490000000000002 200 200 200
4207324.81038 7544032.98836 32.214 200 200 200
4207325.8203799995 7544033.743360001 32.265 200 200 200
4207325.39638 7544032.52936 32.381 200 200 200
4207327.08438 7544033.74736 32.258 200 200 200
4207322.92438 7544030.17136 31.006 200 200 200
4207325.13338 7544031.2933600005 32.22 200 200 200
4207325.59538 7544029.45136 30.645 200 200 200
4207324.79638 7544031.57636 32.072 200 200 200
4207324.58238 7544033.66236 32.159 200 200 200
4207325.58238 7544030.09136 31.288 200 200 200
4207323.06938 7544029.40036 30.683 200 200 200
4207326.74938 7544031.93736 32.542 200 200 200
4207323.297379999 7544032.3503600005 31.081 200 200 200
4207326.28938 7544030.54236 32.092 200 200 200
4207324.899379999 7544034.52436 31.873 200 200 200
4207325.41338 7544034.947360001 32.043 200 200 200
4207325.32338 7544035.2593600005 31.996000000000002 200 200 200
4207326.814379999 7544035.73636 31.663 200 200 200
4207324.984379999 7544034.947360001 32.078 200 200 200
4207326.47438 7544035.34736 31.899 200 200 200
4207325.05638 7544034.74936 31.855 200 200 200
4207325.65038 7544035.38336 31.234 200 200 200
4207327.28738 7544035.3673600005 31.814 200 200 200
4207326.16338 7544035.589360001 31.549 200 200 200
4207326.047379999 7544035.44436 31.729 200 200 200
4207327.10538 7544035.08736 32.01 200 200 200
4207326.04538 7544035.277360001 31.898 200 200 200
4207325.02938 7544034.92836 32.104 200 200 200
4207326.20738 7544035.510360001 30.245 200 200 200
4207326.85838 7544034.81436 32.003 200 200 200
4207326.10338 7544025.07036 26.977 200 200 200
4207325.916379999 7544028.24136 29.332 200 200 200
4207326.11838 7544027.282360001 26.91 200 200 200
4207325.84538 7544028.41236 28.072 200 200 200
4207326.73238 7544026.72736 26.724 200 200 200
4207326.17338 7544028.44236 28.72 200 200 200
4207324.848379999 7544028.47236 28.306 200 200 200
4207323.39138 7544026.83136 26.792 200 200 200
4207324.08338 7544028.52936 28.212 200 200 200
4207327.35738 7544028.61336 29.381 200 200 200
4207326.15638 7544027.79636 27.113 200 200 200
4207327.0763799995 7544027.9353600005 27.406 200 200 200
4207326.7183799995 7544027.92536 27.303 200 200 200
4207325.257379999 7544028.50836 28.143 200 200 200
4207324.734379999 7544028.06736 27.175 200 200 200
4207327.15738 7544026.83136 26.863 200 200 200
4207322.7863799995 7544026.03636 26.771 200 200 200
4207326.93638 7544028.42836 27.621000000000002 200 200 200
4207323.90938 7544026.68436 26.887 200 200 200
4207326.25638 7544028.38836 29.178 200 200 200
4207325.59438 7544027.58836 27.077 200 200 200
4207324.405379999 7544025.646360001 27.207 200 200 200
4207324.60038 7544027.87636 27.052 200 200 200
4207323.86438 7544026.59436 26.915 200 200 200
4207327.40138 7544027.16436 27.071 200 200 200
4207324.62938 7544026.14136 27.145 200 200 200
4207326.81938 7544027.13936 26.777 200 200 200
4207324.67538 7544026.805360001 26.964 200 200 200
4207326.35238 7544028.33736 28.8 200 200 200
4207324.83438 7544028.277360001 27.829 200 200 200
4207325.26638 7544028.08836 27.722 200 200 200
4207324.11838 7544028.33536 27.444 200 200 200
4207327.15938 7544025.02836 27.275 200 200 200
4207324.92538 7544026.28636 26.979 200 200 200
4207324.60838 7544028.27936 27.866 200 200 200
4207325.33238 7544025.26336 27.184 200 200 200
4207325.82838 7544025.28936 27.186 200 200 200
4207325.11338 7544027.97336 27.42 200 200 200
4207326.49538 7544027.464360001 27.199 200 200 200
4207327.01038 7544027.862360001 27.344 200 200 200
4207325.60238 7544028.29536 29.164 200 200 200
4207327.121379999 7544028.00736 27.455000000000002 200 200 200
4207327.115379999 7544026.53336 26.832 200 200 200
4207323.16538 7544026.34236 26.917 200 200 200
4207323.89638 7544028.51636 28.617 200 200 200
4207324.07938 7544028.56536 28.376 200 200 200
4207323.01838 7544029.07636 28.295 200 200 200
4207323.45538 7544029.10436 29.197 200 200 200
4207323.47438 7544029.38836 29.367 200 200 200
4207323.68238 7544028.78636 29.18 200 200 200
4207323.86138 7544028.65936 29.286 200 200 200
4207323.939379999 7544029.2593600005 27.128 200 200 200
4207324.21138 7544028.52436 27.249000000000002 200 200 200
4207326.38138 7544029.06236 28.237000000000002 200 200 200
4207323.05438 7544028.76836 28.987000000000002 200 200 200
4207322.89238 7544029.69636 29.001 200 200 200
4207325.43638 7544028.58136 28.205000000000002 200 200 200
4207323.54438 7544029.17736 29.284 200 200 200
4207323.91338 7544028.78636 27.457 200 200 200
4207324.03938 7544028.74036 29.437 200 200 200
4207323.53938 7544029.37636 29.495 200 200 200
4207325.23938 7544032.55136 29.514 200 200 200
4207322.62838 7544030.65836 29.724 200 200 200
4207323.31738 7544028.65536 28.116 200 200 200
4207323.76638 7544029.1003600005 29.426000000000002 200 200 200
4207322.98638 7544028.919360001 28.907 200 200 200
4207323.15438 7544029.38236 29.594 200 200 200
4207323.2863799995 7544028.93936 28.566 200 200 200
4207321.01038 7544025.521360001 23.781 200 200 200
4207321.55038 7544025.640360001 23.819000000000003 200 200 200
4207325.33838 7544026.231360001 26.526 200 200 200
4207324.291379999 7544028.04536 26.64 200 200 200
4207327.07438 7544025.032360001 25.588 200 200 200
4207327.10538 7544025.6743600005 26.282 200 200 200
4207322.79538 7544025.60536 23.599 200 200 200
4207326.82738 7544026.39736 26.567 200 200 200
4207326.763379999 7544026.33436 24.895 200 200 200
4207322.27538 7544025.231360001 23.757 200 200 200
4207324.17938 7544028.25736 26.47 200 200 200
4207325.13538 7544027.43336 26.279 200 200 200
4207325.22438 7544027.46036 26.343 200 200 200
4207327.43038 7544026.63036 25.462 200 200 200
4207324.2923799995 7544028.21836 26.535 200 200 200
4207323.93738 7544028.3673600005 26.149 200 200 200
4207324.098379999 7544027.79836 26.1 200 200 200
4207326.57738 7544026.80136 26.531 200 200 200
4207324.007379999 7544028.11036 26.041 200 200 200
4207322.92938 7544025.43236 23.68 200 200 200
4207327.092379999 7544026.80336 25.367 200 200 200
4207325.433379999 7544025.72436 26.425 200 200 200
4207322.31938 7544025.65636 23.696 200 200 200
4207326.68738 7544028.17036 23.492 200 200 200
4207322.22838 7544025.78936 23.68 200 200 200
4207321.79838 7544025.23936 23.894 200 200 200
4207325.59438 7544026.771360001 25.905 200 200 200
4207324.7523799995 7544026.47336 26.479 200 200 200
4207324.04438 7544029.390360001 26.2 200 200 200
4207324.79038 7544033.08436 26.506 200 200 200
4207324.11838 7544029.51336 25.741 200 200 200
4207325.36738 7544029.618360001 23.868000000000002 200 200 200
4207324.46938 7544033.1513600005 25.387 200 200 200
4207324.25638 7544033.38036 24.556 200 200 200
4207324.17538 7544030.23236 26.256 200 200 200
4207324.31338 7544028.42636 26.580000000000002 200 200 200
4207321.01638 7544026.53336 23.122 200 200 200
4207324.791379999 7544026.25036 22.794 200 200 200
4207323.348379999 7544027.50036 22.337 200 200 200
4207324.81138 7544025.59736 23.102 200 200 200
4207323.20738 7544026.686360001 22.94 200 200 200
4207325.93538 7544027.015360001 22.946 200 200 200
4207324.84138 7544025.362360001 22.715 200 200 200
4207326.09038 7544027.34136 23.066000000000003 200 200 200
4207326.23138 7544026.42736 22.95 200 200 200
4207322.871379999 7544027.13736 22.648 200 200 200
4207325.95838 7544026.9243600005 22.949 200 200 200
4207324.71638 7544027.14536 22.924 200 200 200
4207324.672379999 7544027.2763600005 22.882 200 200 200
4207324.22638 7544026.58236 22.72 200 200 200
4207323.47538 7544025.6173600005 23.424 200 200 200
4207325.41438 7544027.99736 22.818 200 200 200
4207325.71138 7544026.78136 22.862000000000002 200 200 200
4207324.24438 7544027.91236 22.649 200 200 200
4207323.14838 7544027.953360001 22.084 200 200 200
4207324.63138 7544025.15036 23.176000000000002 200 200 200
4207324.7183799995 7544027.91036 22.588 200 200 200
4207322.64738 7544027.15436 22.596 200 200 200
4207322.69038 7544027.07136 22.674 200 200 200
4207325.83838 7544028.77236 22.852 200 200 200
4207324.115379999 7544029.67636 21.768 200 200 200
4207323.5933799995 7544028.18236 22.36 200 200 200
4207326.19838 7544028.98536 22.937 200 200 200
4207325.03138 7544029.25736 22.442 200 200 200
4207324.09038 7544029.265360001 22.006 200 200 200
4207324.71538 7544028.36936 22.678 200 200 200
4207323.05738 7544028.46236 21.932000000000002 200 200 200
4207323.66938 7544029.65436 21.512 200 200 200
4207325.58238 7544029.91636 23.038 200 200 200
4207325.56938 7544028.92336 22.77 200 200 200
4207323.71338 7544029.59136 21.564999999999998 200 200 200
4207323.01238 7544028.72836 21.874000000000002 200 200 200
4207326.29938 7544035.41636 28.777 200 200 200
4207326.73938 7544034.896360001 29.616 200 200 200
4207326.94738 7544034.87236 29.301000000000002 200 200 200
4207326.92038 7544035.33536 29.416 200 200 200
4207327.95938 7544031.9013600005 31.738 200 200 200
4207327.52138 7544033.11536 31.947 200 200 200
4207328.56738 7544032.19636 31.709 200 200 200
4207328.14638 7544030.84836 31.575 200 200 200
4207328.56138 7544034.288360001 30.123 200 200 200
4207328.484379999 7544029.47736 30.545 200 200 200
4207327.89038 7544031.97136 31.774 200 200 200
4207328.32138 7544031.42936 31.752000000000002 200 200 200
4207327.6103799995 7544029.04836 30.310000000000002 200 200 200
4207328.06838 7544032.71636 31.731 200 200 200
4207328.80138 7544029.4753600005 30.496000000000002 200 200 200
4207327.93538 7544029.936360001 30.937 200 200 200
4207327.92038 7544029.57136 30.603 200 200 200
4207328.138379999 7544034.34336 31.146 200 200 200
4207328.774379999 7544031.75836 31.606 200 200 200
4207328.29038 7544030.00836 31.241 200 200 200
4207328.17138 7544029.1343600005 30.489 200 200 200
4207328.99238 7544030.26836 31.061 200 200 200
4207328.55038 7544031.10536 31.659 200 200 200
4207328.25438 7544031.38336 31.765 200 200 200
4207328.36438 7544033.47936 31.359 200 200 200
4207328.06638 7544033.14336 31.708000000000002 200 200 200
4207327.77138 7544030.27836 31.257 200 200 200
4207328.39238 7544031.03736 31.673000000000002 200 200 200
4207328.13938 7544032.12236 31.67 200 200 200
4207328.91938 7544033.680360001 30.418 200 200 200
4207328.26838 7544030.05236 31.240000000000002 200 200 200
4207327.882379999 7544034.17936 31.656 200 200 200
4207327.49338 7544034.39936 31.889 200 200 200
4207327.859379999 7544029.004360001 30.3 200 200 200
4207327.72838 7544032.07436 31.948 200 200 200
4207327.52838 7544029.98236 30.959 200 200 200
4207328.04638 7544034.53036 31.23 200 200 200
4207327.69238 7544031.19436 31.678 200 200 200
4207327.96938 7544029.06236 30.451 200 200 200
4207327.74938 7544032.70236 31.882 200 200 200
4207328.717379999 7544035.16036 29.975 200 200 200
4207328.27838 7544035.20436 30.568 200 200 200
4207328.01638 7544035.0093600005 31.547 200 200 200
4207328.80738 7544035.38136 29.919 200 200 200
4207327.51538 7544035.73436 31.603 200 200 200
4207327.60738 7544035.8163600005 31.462 200 200 200
4207328.581379999 7544035.16036 29.987000000000002 200 200 200
4207328.18838 7544035.601360001 30.443 200 200 200
4207327.76038 7544035.50836 31.876 200 200 200
4207328.09038 7544035.2423600005 31.060000000000002 200 200 200
4207328.91938 7544026.89436 26.731 200 200 200
4207328.39238 7544027.62136 27.078 200 200 200
4207327.94738 7544028.55336 29.183 200 200 200
4207328.48938 7544027.12536 26.799 200 200 200
4207327.57238 7544027.84836 27.423000000000002 200 200 200
4207328.31138 7544026.71136 26.745 200 200 200
4207328.08538 7544026.73536 26.769000000000002 200 200 200
4207328.72238 7544028.08036 27.436 200 200 200
4207327.96138 7544027.42736 27.22 200 200 200
4207328.90838 7544027.96336 27.098 200 200 200
4207328.36838 7544027.60236 27.116 200 200 200
4207327.99938 7544027.993360001 27.511 200 200 200
4207328.50538 7544027.65936 26.989 200 200 200
4207328.45238 7544024.00536 27.13 200 200 200
4207328.91438 7544027.67536 26.877000000000002 200 200 200
4207328.73738 7544028.2253600005 27.851 200 200 200
4207328.06938 7544027.93936 27.398 200 200 200
4207328.36238 7544028.782360001 28.596 200 200 200
4207328.27838 7544028.8103600005 29.546 200 200 200
4207328.75438 7544033.56336 29.52 200 200 200
4207328.8093799995 7544031.72336 29.439 200 200 200
4207328.48938 7544028.77836 29.117 200 200 200
4207327.9343799995 7544028.96736 29.819 200 200 200
4207328.29838 7544034.35936 29.599 200 200 200
4207327.666379999 7544028.69236 29.799 200 200 200
4207328.3603799995 7544028.79036 28.71 200 200 200
4207328.9513799995 7544024.73636 24.033 200 200 200
4207328.58838 7544025.885360001 26.577 200 200 200
4207328.98738 7544025.748360001 24.224 200 200 200
4207328.10838 7544025.10436 24.438000000000002 200 200 200
4207328.626379999 7544026.36636 25.5 200 200 200
4207328.354379999 7544025.77936 24.384 200 200 200
4207328.01438 7544024.09836 24.880000000000003 200 200 200
4207328.47438 7544026.04636 26.61 200 200 200
4207328.5593799995 7544035.277360001 28.614 200 200 200
4207318.01538 7544025.18936 11.093 200 200 200
4207321.43538 7544025.555360001 10.100999999999999 200 200 200
4207320.23338 7544026.69236 10.206 200 200 200
4207320.66238 7544026.87036 10.166 200 200 200
4207320.39738 7544025.845360001 10.088000000000001 200 200 200
4207321.43238 7544026.66236 10.073 200 200 200
4207321.34538 7544025.58136 10.138000000000002 200 200 200
4207320.27838 7544026.6743600005 10.282 200 200 200
4207320.84438 7544025.93236 10.315999999999999 200 200 200
4207320.94138 7544025.45636 10.012 200 200 200
4207320.81938 7544026.27836 10.396999999999998 200 200 200
4207322.83838 7544034.26636 10.299 200 200 200
4207322.89838 7544033.94636 10.827000000000002 200 200 200
4207322.92438 7544035.30736 10.286000000000001 200 200 200
4207322.69138 7544034.14336 11.036999999999999 200 200 200
4207322.68138 7544034.68136 10.11 200 200 200
4207322.86638 7544034.02436 10.077000000000002 200 200 200
4207328.18638 7544024.36336 10.126999999999999 200 200 200
4207328.14038 7544024.25736 10.231000000000002 200 200 200
