4207296.12838 7544033.85336 29.697 200 200 200
4207296.0593799995 7544033.92636 29.77 200 200 200
4207296.84638 7544033.96036 29.875 200 200 200
4207298.382379999 7544034.129360001 31.096 200 200 200
4207300.92438 7544029.51136 30.07 200 200 200
4207298.996379999 7544033.91436 30.915 200 200 200
4207299.06038 7544033.84336 29.725 200 200 200
4207298.717379999 7544033.84136 29.989 200 200 200
4207298.69838 7544034.11136 31.124000000000002 200 200 200
4207300.69738 7544029.02836 30.283 200 200 200
4207300.97438 7544029.6003600005 29.764 200 200 200
4207299.10638 7544033.84136 29.7 200 200 200
4207297.54838 7544035.89136 31.949 200 200 200
4207297.75438 7544035.32736 31.964000000000002 200 200 200
4207297.86738 7544035.41636 31.95 200 200 200
4207298.405379999 7544035.5263600005 30.732 200 200 200
4207296.12238 7544034.40936 29.886 200 200 200
4207297.92638 7544037.9183600005 30.379 200 200 200
4207296.84738 7544037.47736 30.283 200 200 200
4207297.56038 7544035.48636 31.401 200 200 200
4207297.61838 7544036.24136 31.788 200 200 200
4207297.43238 7544035.07936 29.686 200 200 200
4207297.76238 7544035.1343600005 30.092000000000002 200 200 200
4207297.405379999 7544036.493360001 29.562 200 200 200
4207298.206379999 7544036.45436 31.583000000000002 200 200 200
4207298.4113799995 7544036.15836 31.554000000000002 200 200 200
4207298.25438 7544037.35436 29.811 200 200 200
4207297.15038 7544036.76236 31.241 200 200 200
4207296.87238 7544034.96336 30.84 200 200 200
4207297.34738 7544034.97736 30.715 200 200 200
4207298.11738 7544036.33636 31.548000000000002 200 200 200
4207297.6953799995 7544035.220360001 30.026 200 200 200
4207296.69738 7544035.226360001 30.439 200 200 200
4207297.791379999 7544034.930360001 29.78 200 200 200
4207296.73138 7544035.25236 31.047 200 200 200
4207296.61838 7544034.59236 29.871000000000002 200 200 200
4207296.70838 7544036.07636 30.900000000000002 200 200 200
4207298.34438 7544035.00336 31.835 200 200 200
4207297.90038 7544037.98036 30.593 200 200 200
4207296.84438 7544034.52836 29.912 200 200 200
4207298.02738 7544036.311360001 31.523 200 200 200
4207297.54838 7544034.8103600005 30.872 200 200 200
4207297.35738 7544035.4183600005 29.981 200 200 200
4207297.8203799995 7544034.98536 30.793 200 200 200
4207296.68838 7544035.24436 30.971 200 200 200
4207296.84738 7544036.63236 30.494 200 200 200
4207298.51138 7544037.88036 30.447 200 200 200
4207297.07238 7544037.6343600005 30.268 200 200 200
4207300.20238 7544037.16136 30.714000000000002 200 200 200
4207300.00038 7544037.16136 30.713 200 200 200
4207299.48838 7544034.54036 29.634 200 200 200
4207299.27238 7544037.14336 31.09 200 200 200
4207299.030379999 7544037.686360001 30.53 200 200 200
4207299.774379999 7544037.51736 30.64 200 200 200
4207299.36938 7544037.731360001 30.518 200 200 200
4207298.95338 7544035.13836 31.810000000000002 200 200 200
4207298.69638 7544034.737360001 31.032 200 200 200
4207299.405379999 7544036.71236 29.922 200 200 200
4207299.77038 7544036.07436 29.864 200 200 200
4207299.01238 7544034.71936 31.072 200 200 200
4207299.18238 7544036.25536 31.314 200 200 200
4207299.479379999 7544035.97136 31.133 200 200 200
4207299.84138 7544037.32036 30.721 200 200 200
4207299.88738 7544035.48236 29.79 200 200 200
4207298.80538 7544035.26736 31.147000000000002 200 200 200
4207298.854379999 7544034.6513600005 31.086000000000002 200 200 200
4207299.83638 7544035.28336 30.163 200 200 200
4207298.95438 7544035.907360001 31.525000000000002 200 200 200
4207299.64238 7544035.85836 30.845 200 200 200
4207298.280379999 7544033.777360001 29.202 200 200 200
4207296.19638 7544032.970360001 27.119 200 200 200
4207297.59738 7544032.390360001 27.154 200 200 200
4207297.54338 7544032.63336 27.642 200 200 200
4207298.01038 7544031.95936 26.811 200 200 200
4207296.43038 7544034.23436 29.067 200 200 200
4207298.27038 7544031.63736 27.619 200 200 200
4207298.39238 7544033.731360001 29.204 200 200 200
4207298.16238 7544031.61536 27.34 200 200 200
4207297.51838 7544033.0663600005 27.682000000000002 200 200 200
4207297.65838 7544032.18236 27.666 200 200 200
4207295.90738 7544033.39836 26.803 200 200 200
4207296.382379999 7544034.09136 29.261 200 200 200
4207296.6613799995 7544032.9923600005 27.654 200 200 200
4207297.78838 7544033.53736 27.621000000000002 200 200 200
4207298.20838 7544033.97236 29.387 200 200 200
4207298.17538 7544032.21336 27.757 200 200 200
4207297.79338 7544031.84836 27.726 200 200 200
4207295.82138 7544033.28636 26.539 200 200 200
4207295.950379999 7544033.36436 26.943 200 200 200
4207298.467379999 7544031.87036 26.537 200 200 200
4207295.77738 7544033.29836 26.424 200 200 200
4207296.30538 7544033.2593600005 27.316 200 200 200
4207296.38738 7544033.91436 27.591 200 200 200
4207298.17438 7544031.95736 26.508000000000003 200 200 200
4207298.30538 7544033.41036 27.703 200 200 200
4207297.189379999 7544032.555360001 27.261 200 200 200
4207296.85838 7544032.07036 26.866 200 200 200
4207298.44038 7544034.186360001 28.952 200 200 200
4207299.1783799995 7544033.59836 29.491 200 200 200
4207299.03138 7544031.248360001 26.657 200 200 200
4207299.44838 7544034.163360001 28.02 200 200 200
4207298.77238 7544031.21236 27.354 200 200 200
4207298.90438 7544031.47436 27.513 200 200 200
4207300.75338 7544029.29636 26.777 200 200 200
4207300.58938 7544033.71036 27.378 200 200 200
4207299.92738 7544034.11336 29.076 200 200 200
4207299.01138 7544031.98936 27.716 200 200 200
4207299.6673799995 7544033.771360001 28.487000000000002 200 200 200
4207299.43038 7544033.58036 29.251 200 200 200
4207298.61638 7544033.63836 28.003 200 200 200
4207300.0193799995 7544031.87836 26.837 200 200 200
4207300.70438 7544029.23536 29.733 200 200 200
4207299.825379999 7544032.53536 27.441000000000003 200 200 200
4207298.842379999 7544031.06936 27.269000000000002 200 200 200
4207300.03138 7544029.140360001 26.841 200 200 200
4207300.62038 7544032.45036 27.181 200 200 200
4207298.85138 7544032.152360001 27.787 200 200 200
4207299.42338 7544034.19236 29.541 200 200 200
4207298.757379999 7544032.76836 27.86 200 200 200
4207299.5193799995 7544033.322360001 29.398 200 200 200
4207299.92538 7544032.00136 26.972 200 200 200
4207298.85138 7544032.197360001 27.786 200 200 200
4207299.44038 7544031.32736 26.492 200 200 200
4207299.3603799995 7544033.73336 28.017 200 200 200
4207299.64738 7544029.93836 26.642 200 200 200
4207300.547379999 7544029.20936 29.695 200 200 200
4207300.88638 7544029.85536 29.567 200 200 200
4207299.71038 7544032.69836 27.512 200 200 200
4207300.25438 7544034.02036 28.446 200 200 200
4207300.251379999 7544033.12736 27.466 200 200 200
4207299.825379999 7544032.60536 27.464 200 200 200
4207295.95738 7544032.623360001 25.3 200 200 200
4207296.63538 7544032.0663600005 25.381 200 200 200
4207295.17038 7544033.4753600005 24.958 200 200 200
4207296.27838 7544031.78036 25.222 200 200 200
4207297.42738 7544032.08036 25.233 200 200 200
4207298.0023799995 7544031.87836 24.645 200 200 200
4207294.85738 7544033.17136 24.837 200 200 200
4207296.11138 7544033.0603600005 25.379 200 200 200
4207295.68738 7544033.81336 26.335 200 200 200
4207295.85238 7544031.54636 25.124000000000002 200 200 200
4207296.62538 7544032.4243600005 25.905 200 200 200
4207295.479379999 7544033.47936 25.29 200 200 200
4207297.0593799995 7544031.47436 24.447 200 200 200
4207295.831379999 7544031.44836 25.037 200 200 200
4207297.757379999 7544032.94536 25.556 200 200 200
4207297.825379999 7544032.919360001 25.519 200 200 200
4207296.65738 7544031.23236 24.261 200 200 200
4207295.09938 7544033.282360001 25.102 200 200 200
4207296.581379999 7544032.52936 25.801000000000002 200 200 200
4207296.11838 7544032.05236 25.239 200 200 200
4207295.59638 7544033.87836 26.32 200 200 200
4207298.513379999 7544032.88936 24.813000000000002 200 200 200
4207294.92538 7544033.0603600005 24.878 200 200 200
4207295.35638 7544031.544360001 25.121000000000002 200 200 200
4207295.03738 7544032.4183600005 25.034 200 200 200
4207296.26538 7544031.4923600005 24.709 200 200 200
4207296.79538 7544031.63736 25.380000000000003 200 200 200
4207296.05738 7544032.66036 26.061 200 200 200
4207297.876379999 7544032.31336 25.293 200 200 200
4207296.01138 7544031.4923600005 25.024 200 200 200
4207296.60238 7544032.6683600005 25.848 200 200 200
4207295.27838 7544033.69636 25.169 200 200 200
4207299.75638 7544031.41536 26.441000000000003 200 200 200
4207300.98638 7544029.902360001 26.142 200 200 200
4207298.734379999 7544033.86536 24.841 200 200 200
4207298.71338 7544033.328360001 24.917 200 200 200
4207300.65738 7544029.2593600005 20.273 200 200 200
4207299.14038 7544029.82536 20.352 200 200 200
4207299.00638 7544029.82536 20.364 200 200 200
4207299.12538 7544029.42036 20.083 200 200 200
4207296.842379999 7544029.55136 17.557000000000002 200 200 200
4207297.27138 7544030.101360001 17.33 200 200 200
4207297.655379999 7544029.9923600005 17.36 200 200 200
4207296.81938 7544029.21536 17.603 200 200 200
4207297.837379999 7544029.54136 17.372 200 200 200
4207298.15438 7544029.69436 17.294 200 200 200
4207300.24538 7544031.83836 17.113 200 200 200
4207299.96638 7544029.03436 19.755000000000003 200 200 200
4207300.86838 7544029.94836 19.521 200 200 200
4207300.95838 7544029.90836 19.586 200 200 200
4207300.50338 7544030.26236 18.345 200 200 200
4207300.348379999 7544030.62236 18.044 200 200 200
4207300.98038 7544029.86936 18.23 200 200 200
4207300.19638 7544030.5663600005 19.084 200 200 200
4207300.854379999 7544029.93236 19.027 200 200 200
4207300.1273799995 7544029.20136 19.561 200 200 200
4207300.28938 7544029.57936 19.172 200 200 200
4207300.59638 7544030.66636 18.006 200 200 200
4207296.36638 7544037.03436 26.69 200 200 200
4207297.29638 7544037.20736 29.138 200 200 200
4207297.29938 7544034.44936 28.306 200 200 200
4207296.16438 7544034.21836 27.443 200 200 200
4207296.24838 7544036.67636 28.486 200 200 200
4207296.74838 7544037.3503600005 28.092 200 200 200
4207296.71638 7544037.79536 28.575 200 200 200
4207296.30438 7544036.73636 27.8 200 200 200
4207296.9343799995 7544037.34236 29.133 200 200 200
4207296.3603799995 7544036.754360001 27.153 200 200 200
4207296.66938 7544036.97836 28.861 200 200 200
4207298.541379999 7544035.669360001 26.482 200 200 200
4207297.40838 7544037.29836 29.136 200 200 200
4207296.30438 7544036.54136 26.486 200 200 200
4207297.587379999 7544034.40536 28.6 200 200 200
4207297.30038 7544034.4413600005 28.192 200 200 200
4207296.75838 7544034.77336 28.13 200 200 200
4207296.45238 7544036.6343600005 27.081 200 200 200
4207296.9343799995 7544036.83136 29.26 200 200 200
4207296.49338 7544036.27336 27.369 200 200 200
4207297.96038 7544037.00636 28.563000000000002 200 200 200
4207298.38038 7544034.46136 28.413 200 200 200
4207296.44638 7544036.32436 27.456 200 200 200
4207295.899379999 7544037.3503600005 27.567 200 200 200
4207297.462379999 7544034.42536 27.990000000000002 200 200 200
4207296.32438 7544036.29136 26.734 200 200 200
4207296.53438 7544036.00336 27.68 200 200 200
4207298.35838 7544037.53936 27.538 200 200 200
4207296.1673799995 7544037.69836 27.662 200 200 200
4207298.513379999 7544037.4413600005 27.744 200 200 200
4207296.39038 7544037.62036 27.817 200 200 200
4207300.52638 7544034.27836 28.276 200 200 200
4207299.01138 7544035.54836 28.097 200 200 200
4207299.32738 7544036.32636 27.902 200 200 200
4207300.36238 7544034.50836 28.612000000000002 200 200 200
4207300.5703799995 7544034.46336 28.323 200 200 200
4207299.24338 7544035.65336 29.136 200 200 200
4207298.84538 7544036.27336 28.408 200 200 200
4207299.60838 7544035.21236 28.959 200 200 200
4207299.16238 7544036.54536 26.945 200 200 200
4207300.638379999 7544034.43736 28.273 200 200 200
4207298.72738 7544034.54836 29.211000000000002 200 200 200
4207298.74338 7544034.42936 28.263 200 200 200
4207299.979379999 7544034.24036 27.235 200 200 200
4207299.63438 7544034.97936 28.888 200 200 200
4207298.57738 7544037.59236 27.918 200 200 200
4207299.71038 7544035.22436 28.261 200 200 200
4207295.55038 7544034.34736 26.232 200 200 200
4207295.22038 7544034.06536 25.832 200 200 200
4207294.8773799995 7544034.70536 25.928 200 200 200
4207295.2863799995 7544034.135360001 25.868000000000002 200 200 200
4207295.63938 7544034.68736 26.237000000000002 200 200 200
4207294.48338 7544034.248360001 25.329 200 200 200
4207294.325379999 7544034.25036 25.366 200 200 200
4207294.97438 7544034.03136 25.717 200 200 200
4207294.632379999 7544034.84636 25.733 200 200 200
4207298.98138 7544034.20436 24.821 200 200 200
4207292.03338 7544030.65436 10.530000000000001 200 200 200
4207292.49338 7544031.49436 11.133 200 200 200
4207292.95338 7544030.57036 10.867 200 200 200
4207292.60738 7544031.33536 11.113 200 200 200
4207292.774379999 7544030.65436 10.774999999999999 200 200 200
4207292.28338 7544031.748360001 11.506 200 200 200
4207296.0023799995 7544029.44036 16.478 200 200 200
4207296.092379999 7544029.72836 16.395 200 200 200
4207295.88938 7544030.10536 16.320999999999998 200 200 200
4207296.52838 7544030.91636 15.645 200 200 200
4207295.75438 7544029.66436 15.013 200 200 200
4207296.17738 7544030.00036 16.692999999999998 200 200 200
4207298.70538 7544030.33836 16.533 200 200 200
4207298.479379999 7544030.71336 16.434 200 200 200
4207295.14638 7544029.72836 13.575 200 200 200
4207296.6953799995 7544031.1343600005 16.414 200 200 200
4207300.12238 7544030.67336 15.252 200 200 200
4207300.31838 7544030.487360001 15.764000000000001 200 200 200
4207295.77238 7544032.35236 11.814 200 200 200
4207293.31338 7544030.19936 11.018 200 200 200
4207293.67038 7544031.12636 11.009 200 200 200
4207295.15338 7544030.36136 13.001000000000001 200 200 200
4207293.35538 7544031.09736 10.931999999999999 200 200 200
4207293.496379999 7544029.85336 10.926000000000002 200 200 200
4207294.62938 7544030.47936 11.918 200 200 200
4207293.121379999 7544029.237360001 10.584 200 200 200
4207295.72738 7544032.37636 11.812999999999999 200 200 200
4207293.64838 7544032.87136 11.879000000000001 200 200 200
4207294.74138 7544030.39136 11.959 200 200 200
4207295.95338 7544032.396360001 11.763000000000002 200 200 200
4207294.9683799995 7544030.9583600005 11.667000000000002 200 200 200
4207296.74838 7544031.79836 11.605 200 200 200
4207293.92438 7544031.87236 11.829 200 200 200
4207294.40138 7544030.57436 11.989999999999998 200 200 200
4207296.11438 7544032.03336 11.748000000000001 200 200 200
4207294.21138 7544032.54536 12.042000000000002 200 200 200
4207295.29538 7544032.67836 11.943000000000001 200 200 200
4207295.32438 7544031.34136 11.913 200 200 200
4207294.28738 7544029.4753600005 10.977 200 200 200
4207293.689379999 7544030.50336 11.405000000000001 200 200 200
4207298.42138 7544032.95736 12.447 200 200 200
4207293.337379999 7544032.2933600005 11.739 200 200 200
4207297.67938 7544032.61536 12.439 200 200 200
4207294.40838 7544029.54136 11.8 200 200 200
4207294.939379999 7544031.89936 11.834 200 200 200
4207293.33638 7544032.40836 11.762 200 200 200
4207299.51238 7544032.41236 12.073 200 200 200
4207299.56138 7544032.77036 11.748000000000001 200 200 200
4207292.02538 7544029.010360001 10.076 200 200 200
4207292.32238 7544034.38936 12.556999999999999 200 200 200
4207292.61338 7544034.31236 12.713000000000001 200 200 200
4207292.348379999 7544033.84136 12.495000000000001 200 200 200
4207292.075379999 7544034.294360001 12.495000000000001 200 200 200
4207292.83638 7544033.13336 11.818000000000001 200 200 200
4207292.00638 7544035.60536 12.221 200 200 200
4207292.37538 7544033.68436 12.207 200 200 200
4207296.56138 7544033.40436 11.602 200 200 200
4207294.56638 7544034.4353600005 11.870999999999999 200 200 200
4207296.99238 7544033.08436 11.536000000000001 200 200 200
4207297.01138 7544033.743360001 11.596 200 200 200
4207295.69838 7544034.59836 11.594000000000001 200 200 200
4207295.51438 7544033.57436 12.100000000000001 200 200 200
4207293.314379999 7544035.19236 12.353000000000002 200 200 200
4207293.638379999 7544034.42736 12.107 200 200 200
4207296.97138 7544033.6743600005 11.268 200 200 200
4207296.40238 7544033.27236 11.668 200 200 200
4207294.098379999 7544035.4243600005 12.668 200 200 200
4207294.90138 7544035.953360001 13.027000000000001 200 200 200
4207295.96938 7544035.595360001 11.317 200 200 200
4207294.11838 7544035.703360001 12.763000000000002 200 200 200
4207293.12838 7544033.40836 11.825 200 200 200
4207294.52138 7544033.37236 12.163 200 200 200
4207297.03538 7544034.08736 11.347000000000001 200 200 200
4207297.4513799995 7544032.919360001 11.137 200 200 200
4207294.76838 7544035.504360001 13.088000000000001 200 200 200
4207293.31538 7544035.10236 12.367 200 200 200
4207293.28838 7544035.60536 12.443999999999999 200 200 200
4207295.109379999 7544034.4923600005 11.719999999999999 200 200 200
4207293.4453799995 7544035.589360001 12.508 200 200 200
4207293.89138 7544033.09636 12.141000000000002 200 200 200
4207294.88538 7544034.004360001 11.844999999999999 200 200 200
4207296.672379999 7544034.95936 11.235 200 200 200
4207298.0363799995 7544033.41036 12.459 200 200 200
4207296.37538 7544033.95636 11.727 200 200 200
4207293.473379999 7544034.743360001 12.402000000000001 200 200 200
4207295.35838 7544033.18936 12.096 200 200 200
4207299.03138 7544033.42136 12.274000000000001 200 200 200
4207298.87838 7544033.86536 11.882000000000001 200 200 200
