4207294.07238 7544011.03036 30.515 200 200 200
4207298.490379999 7544010.97236 32.138 200 200 200
4207298.40638 7544009.93136 30.705000000000002 200 200 200
4207295.21438 7544009.96736 31.321 200 200 200
4207298.422379999 7544010.99636 32.162 200 200 200
4207296.67638 7544009.48836 31.772000000000002 200 200 200
4207296.25638 7544008.91236 31.365000000000002 200 200 200
4207295.22238 7544009.59936 30.962 200 200 200
4207294.59638 7544009.17036 30.716 200 200 200
4207296.50938 7544010.28336 32.119 200 200 200
4207297.52538 7544010.65836 31.95 200 200 200
4207296.837379999 7544008.14536 30.525000000000002 200 200 200
4207298.20338 7544010.23336 31.964000000000002 200 200 200
4207294.01438 7544009.59136 30.348 200 200 200
4207298.280379999 7544011.05436 31.183 200 200 200
4207297.56338 7544009.277360001 31.35 200 200 200
4207298.47138 7544010.7763600005 31.952 200 200 200
4207298.49138 7544010.81736 30.734 200 200 200
4207295.5763799995 7544011.2253600005 32.332 200 200 200
4207297.08238 7544009.48636 31.723 200 200 200
4207294.81338 7544010.09636 30.973 200 200 200
4207296.73638 7544008.30836 31.154 200 200 200
4207294.7923799995 7544009.80236 30.968 200 200 200
4207298.11238 7544010.5493600005 31.956 200 200 200
4207296.83938 7544011.16136 32.327 200 200 200
4207294.405379999 7544010.83736 30.915 200 200 200
4207295.02238 7544011.3103600005 31.718 200 200 200
4207298.3603799995 7544009.7763600005 30.746000000000002 200 200 200
4207294.990379999 7544010.04636 31.191 200 200 200
4207294.22838 7544009.84636 30.989 200 200 200
4207298.32138 7544009.08536 30.586000000000002 200 200 200
4207298.43838 7544010.21336 31.421 200 200 200
4207297.01638 7544008.10736 30.603 200 200 200
4207295.1673799995 7544010.04236 31.433 200 200 200
4207295.23238 7544010.03536 31.611 200 200 200
4207298.38338 7544009.90536 30.667 200 200 200
4207294.94038 7544010.98036 31.269000000000002 200 200 200
4207298.03838 7544010.66636 30.862000000000002 200 200 200
4207298.507379999 7544008.85836 30.288 200 200 200
4207298.21038 7544008.81336 30.592000000000002 200 200 200
4207294.3603799995 7544011.03436 30.834 200 200 200
4207296.04938 7544009.68336 31.408 200 200 200
4207295.42338 7544011.11136 32.055 200 200 200
4207293.85338 7544009.89336 30.466 200 200 200
4207298.26238 7544011.09636 32.273 200 200 200
4207296.90838 7544011.09036 32.279 200 200 200
4207298.44438 7544011.11536 32.235 200 200 200
4207297.37038 7544008.23236 31.02 200 200 200
4207297.7013799995 7544009.06536 31.242 200 200 200
4207296.325379999 7544010.49436 32.214 200 200 200
4207298.45738 7544009.34736 30.466 200 200 200
4207296.35738 7544008.30636 30.861 200 200 200
4207297.7013799995 7544009.089360001 31.254 200 200 200
4207294.20238 7544010.19036 31.044 200 200 200
4207296.40638 7544009.7253600005 31.638 200 200 200
4207295.48138 7544009.71936 31.607 200 200 200
4207298.27038 7544009.46636 30.830000000000002 200 200 200
4207295.467379999 7544009.48436 31.22 200 200 200
4207295.65938 7544008.606360001 30.672 200 200 200
4207298.00038 7544008.993360001 30.878 200 200 200
4207295.331379999 7544011.3163600005 32.074 200 200 200
4207298.28438 7544009.77236 31.266000000000002 200 200 200
4207298.7183799995 7544011.0263600005 31.947 200 200 200
4207299.28538 7544011.13136 30.375 200 200 200
4207298.859379999 7544010.63336 30.398 200 200 200
4207298.7183799995 7544011.07436 31.971 200 200 200
4207298.70238 7544010.8673600005 31.647000000000002 200 200 200
4207298.774379999 7544009.697360001 30.281 200 200 200
4207298.79938 7544009.26836 30.292 200 200 200
4207298.66338 7544009.22436 30.330000000000002 200 200 200
4207299.0363799995 7544011.28636 31.778000000000002 200 200 200
4207291.33838 7544009.36536 28.462 200 200 200
4207291.388379999 7544010.95436 29.108 200 200 200
4207291.81638 7544010.53936 29.273 200 200 200
4207292.18138 7544009.39136 29.341 200 200 200
4207292.83438 7544010.15036 29.174 200 200 200
4207291.86638 7544009.09936 29.372 200 200 200
4207291.60738 7544008.46336 28.79 200 200 200
4207291.21338 7544010.70436 28.822 200 200 200
4207292.7013799995 7544007.13736 28.563000000000002 200 200 200
4207291.280379999 7544011.00036 28.84 200 200 200
4207292.80238 7544008.09736 28.958000000000002 200 200 200
4207291.43238 7544010.65436 29.331 200 200 200
4207291.49838 7544010.68236 29.382 200 200 200
4207291.348379999 7544010.37836 28.97 200 200 200
4207292.15638 7544010.623360001 29.158 200 200 200
4207291.07338 7544009.57936 28.037 200 200 200
4207292.422379999 7544007.12836 27.598 200 200 200
4207292.19638 7544007.83536 28.822 200 200 200
4207292.39038 7544008.65836 29.195 200 200 200
4207292.28338 7544007.34436 27.756 200 200 200
4207291.30238 7544008.39136 28.182000000000002 200 200 200
4207291.68038 7544010.80936 29.265 200 200 200
4207290.89238 7544010.60536 27.846 200 200 200
4207291.54438 7544010.61136 29.346 200 200 200
4207292.68538 7544008.69536 29.095 200 200 200
4207292.52938 7544008.34836 29.001 200 200 200
4207291.42438 7544009.76236 28.618000000000002 200 200 200
4207291.89038 7544008.98336 29.337 200 200 200
4207291.46338 7544008.35936 28.044 200 200 200
4207292.90938 7544004.82136 24.69 200 200 200
4207292.8603799995 7544004.70536 24.959 200 200 200
4207290.68238 7544008.868360001 25.935000000000002 200 200 200
4207290.996379999 7544010.03336 25.756 200 200 200
4207291.35538 7544009.68936 25.969 200 200 200
4207291.780379999 7544006.98436 25.506 200 200 200
4207291.15438 7544010.74036 25.536 200 200 200
4207291.751379999 7544007.39236 25.812 200 200 200
4207292.64538 7544007.37236 26.375 200 200 200
4207291.51238 7544005.31536 24.455 200 200 200
4207290.6273799995 7544008.23836 23.972 200 200 200
4207291.38538 7544007.90436 26.001 200 200 200
4207291.50538 7544006.72236 24.483 200 200 200
4207292.3603799995 7544005.62536 24.895 200 200 200
4207290.85538 7544007.89536 23.893 200 200 200
4207291.365379999 7544007.84936 25.875 200 200 200
4207292.33338 7544007.23936 26.136 200 200 200
4207290.22738 7544009.90536 25.907 200 200 200
4207290.73838 7544006.03136 24.674 200 200 200
4207292.67338 7544005.510360001 25.128 200 200 200
4207291.956379999 7544007.29636 25.727 200 200 200
4207290.94338 7544010.69036 26.069000000000003 200 200 200
4207290.439379999 7544008.35736 25.782 200 200 200
4207291.57338 7544005.77036 24.761 200 200 200
4207291.86738 7544007.26936 25.676000000000002 200 200 200
4207290.0763799995 7544010.00536 25.46 200 200 200
4207292.15238 7544007.57536 26.089 200 200 200
4207290.19138 7544010.57336 23.76 200 200 200
4207291.388379999 7544006.85336 24.721 200 200 200
4207292.11438 7544008.66736 26.746000000000002 200 200 200
4207291.46538 7544005.41536 24.566000000000003 200 200 200
4207292.5763799995 7544007.57336 26.345 200 200 200
4207291.25338 7544006.57936 24.714 200 200 200
4207292.81738 7544006.96936 25.537 200 200 200
4207291.10838 7544008.84436 26.166 200 200 200
4207290.67538 7544009.04136 24.967 200 200 200
4207290.61638 7544009.08536 25.815 200 200 200
4207291.25538 7544010.75636 26.310000000000002 200 200 200
4207292.90438 7544006.83136 25.82 200 200 200
4207290.58938 7544010.08436 24.408 200 200 200
4207291.365379999 7544007.714360001 25.891000000000002 200 200 200
4207290.14538 7544009.91536 24.03 200 200 200
4207290.31238 7544008.67936 23.833 200 200 200
4207295.91838 7544007.32436 29.057000000000002 200 200 200
4207295.94438 7544007.69836 30.062 200 200 200
4207294.16038 7544008.07536 30.056 200 200 200
4207293.82738 7544010.686360001 29.039 200 200 200
4207293.19938 7544010.913360001 27.331 200 200 200
4207295.45538 7544007.57936 29.72 200 200 200
4207293.42538 7544008.96036 29.257 200 200 200
4207294.00538 7544007.271360001 28.744 200 200 200
4207293.15438 7544009.22836 29.211000000000002 200 200 200
4207294.21938 7544006.99636 28.13 200 200 200
4207297.876379999 7544008.089360001 27.742 200 200 200
4207297.25538 7544007.36036 30.014 200 200 200
4207293.1443799995 7544007.52936 28.91 200 200 200
4207295.96638 7544007.85936 30.084 200 200 200
4207298.56238 7544008.55036 29.814 200 200 200
4207298.13338 7544008.05736 29.913 200 200 200
4207296.86938 7544007.85736 30.025000000000002 200 200 200
4207293.38438 7544007.01636 28.125 200 200 200
4207298.65238 7544008.38336 27.13 200 200 200
4207297.47538 7544006.305360001 29.23 200 200 200
4207293.626379999 7544010.635360001 28.963 200 200 200
4207295.53738 7544007.04636 27.553 200 200 200
4207293.75638 7544009.59736 29.585 200 200 200
4207298.24338 7544008.51636 29.978 200 200 200
4207293.29938 7544007.76336 29.019000000000002 200 200 200
4207295.02638 7544007.06836 28.412 200 200 200
4207293.3093799995 7544010.390360001 29.031 200 200 200
4207295.2923799995 7544007.11636 28.729 200 200 200
4207294.27238 7544008.19336 30.104 200 200 200
4207298.48838 7544007.00636 29.192 200 200 200
4207295.18538 7544007.15336 28.36 200 200 200
4207294.45438 7544006.953360001 27.575 200 200 200
4207294.422379999 7544006.91136 28.184 200 200 200
4207296.28138 7544007.97436 30.095 200 200 200
4207294.54438 7544006.95536 27.588 200 200 200
4207293.4173799995 7544010.90336 29.209 200 200 200
4207293.8033799995 7544009.19036 29.57 200 200 200
4207295.15738 7544006.93936 27.338 200 200 200
4207298.50938 7544007.14536 29.240000000000002 200 200 200
4207293.77838 7544009.64136 29.559 200 200 200
4207293.371379999 7544006.93136 27.633 200 200 200
4207294.4453799995 7544007.98836 29.223 200 200 200
4207296.54938 7544007.15336 27.695 200 200 200
4207298.42538 7544006.7423600005 28.995 200 200 200
4207296.25638 7544007.902360001 27.472 200 200 200
4207293.68838 7544006.96936 27.507 200 200 200
4207297.74338 7544006.80836 29.282 200 200 200
4207297.91038 7544007.20536 30.021 200 200 200
4207294.30438 7544006.83136 27.171 200 200 200
4207297.501379999 7544007.99636 30.025000000000002 200 200 200
4207296.36338 7544007.31236 28.007 200 200 200
4207294.2863799995 7544006.97936 28.182000000000002 200 200 200
4207293.62238 7544007.243360001 28.692 200 200 200
4207294.62538 7544006.885360001 28.135 200 200 200
4207293.28438 7544010.515360001 29.18 200 200 200
4207295.69938 7544007.52536 29.875 200 200 200
4207298.58438 7544008.60236 27.023 200 200 200
4207292.94338 7544010.88136 29.258 200 200 200
4207293.666379999 7544010.08436 29.446 200 200 200
4207298.29338 7544007.163360001 30.037 200 200 200
4207293.49438 7544008.777360001 29.224 200 200 200
4207295.61438 7544007.3103600005 28.32 200 200 200
4207296.30238 7544008.203360001 30.128 200 200 200
4207295.48838 7544007.1513600005 27.727 200 200 200
4207299.189379999 7544007.57536 28.903 200 200 200
4207299.45538 7544007.68836 29.18 200 200 200
4207299.40338 7544008.743360001 29.357 200 200 200
4207299.99138 7544008.82436 29.219 200 200 200
4207299.723379999 7544009.83036 30.207 200 200 200
4207298.859379999 7544008.39936 29.604 200 200 200
4207299.882379999 7544008.59036 29.11 200 200 200
4207299.24938 7544008.055360001 29.259 200 200 200
4207299.962379999 7544009.36936 29.522000000000002 200 200 200
4207298.88438 7544008.21036 29.507 200 200 200
4207299.81538 7544009.37736 30.206 200 200 200
4207299.87038 7544009.220360001 29.639 200 200 200
4207299.12438 7544008.69336 29.889 200 200 200
4207299.6783799995 7544008.43336 29.138 200 200 200
4207299.905379999 7544008.45136 29.075 200 200 200
4207298.96438 7544007.48536 28.917 200 200 200
4207295.51238 7544004.322360001 24.259 200 200 200
4207294.81638 7544004.01636 24.162 200 200 200
4207294.60538 7544004.60436 24.451 200 200 200
4207296.86838 7544004.890360001 23.935000000000002 200 200 200
4207294.76438 7544004.58036 24.427 200 200 200
4207295.26038 7544004.69336 24.401 200 200 200
4207295.72038 7544004.12536 24.062 200 200 200
4207294.99138 7544004.41736 24.368000000000002 200 200 200
4207297.99938 7544007.62236 25.827 200 200 200
4207296.456379999 7544006.59736 25.248 200 200 200
4207297.30538 7544005.80436 24.6 200 200 200
4207298.58838 7544008.5603600005 26.783 200 200 200
4207297.68738 7544007.032360001 24.381 200 200 200
4207296.27638 7544006.56936 26.63 200 200 200
4207297.46938 7544006.72236 25.352 200 200 200
4207296.0423799995 7544007.09436 26.983 200 200 200
4207294.79638 7544005.70736 24.932000000000002 200 200 200
4207296.524379999 7544006.63936 25.197 200 200 200
4207294.2863799995 7544006.78436 26.868000000000002 200 200 200
4207298.575379999 7544008.14136 26.35 200 200 200
4207296.200379999 7544005.39736 24.668 200 200 200
4207297.52338 7544007.34436 26.047 200 200 200
4207295.90938 7544005.055360001 24.662 200 200 200
4207295.28238 7544006.998360001 25.219 200 200 200
4207295.3033799995 7544006.4243600005 26.831 200 200 200
4207296.96938 7544006.91736 25.547 200 200 200
4207295.871379999 7544006.15036 25.332 200 200 200
4207296.4283799995 7544006.87136 25.558 200 200 200
4207294.3603799995 7544006.64936 25.134 200 200 200
4207294.09438 7544010.53736 26.546 200 200 200
4207296.93738 7544006.873360001 26.144 200 200 200
4207295.52638 7544006.81436 26.886 200 200 200
4207295.9683799995 7544005.89436 24.958 200 200 200
4207296.8263799995 7544006.822360001 26.056 200 200 200
4207293.973379999 7544007.30436 25.154 200 200 200
4207295.3943799995 7544006.601360001 25.356 200 200 200
4207296.79038 7544007.30436 26.729 200 200 200
4207297.365379999 7544006.52936 24.899 200 200 200
4207295.524379999 7544005.17036 24.695 200 200 200
4207294.85738 7544006.71036 25.047 200 200 200
4207298.092379999 7544007.12236 25.789 200 200 200
4207293.50638 7544005.407360001 25.211 200 200 200
4207297.90138 7544009.07736 25.917 200 200 200
4207293.729379999 7544006.464360001 25.123 200 200 200
4207298.48038 7544006.92536 25.568 200 200 200
4207296.98038 7544006.97336 26.256 200 200 200
4207295.56938 7544005.28436 24.692 200 200 200
4207297.38638 7544007.46136 26.106 200 200 200
4207297.876379999 7544008.24636 26.28 200 200 200
4207294.030379999 7544005.39136 24.986 200 200 200
4207297.12238 7544006.8103600005 25.893 200 200 200
4207296.825379999 7544006.89336 26.105 200 200 200
4207297.212379999 7544005.88036 24.712 200 200 200
4207297.09738 7544006.140360001 24.87 200 200 200
4207295.12038 7544006.72436 26.924 200 200 200
4207294.04938 7544005.760360001 25.091 200 200 200
4207296.51438 7544006.88936 25.786 200 200 200
4207293.05538 7544006.18836 25.088 200 200 200
4207297.74938 7544007.36436 26.009 200 200 200
4207299.85738 7544009.760360001 24.719 200 200 200
4207299.31538 7544010.24936 24.64 200 200 200
4207299.013379999 7544007.27536 25.942 200 200 200
4207299.09438 7544008.47736 26.268 200 200 200
4207299.11438 7544009.29136 24.84 200 200 200
4207298.93238 7544010.11436 24.654 200 200 200
4207299.51438 7544007.390360001 25.663 200 200 200
4207299.81638 7544009.05736 24.698 200 200 200
4207298.86838 7544008.47736 26.279 200 200 200
4207299.77038 7544009.83636 24.539 200 200 200
4207299.746379999 7544009.27036 24.806 200 200 200
4207290.2013799995 7544009.90336 23.295 200 200 200
4207296.15138 7544004.26836 23.833 200 200 200
4207295.37838 7544010.476360001 22.522 200 200 200
4207294.24238 7544009.52036 20.498 200 200 200
4207296.81838 7544008.33036 23.368000000000002 200 200 200
4207295.09638 7544008.74736 18.125 200 200 200
4207294.95738 7544009.58536 18.141 200 200 200
4207295.10138 7544009.76436 18.975 200 200 200
4207294.63538 7544009.70536 18.517 200 200 200
4207295.14738 7544009.42336 20.378 200 200 200
4207297.60238 7544012.095360001 32.359 200 200 200
4207297.212379999 7544013.58536 32.345 200 200 200
4207297.94738 7544012.91036 30.324 200 200 200
4207294.64038 7544012.095360001 31.367 200 200 200
4207297.44838 7544014.24536 31.519000000000002 200 200 200
4207296.83938 7544013.99936 31.572 200 200 200
4207294.71438 7544011.49136 31.154 200 200 200
4207298.041379999 7544013.66736 31.308 200 200 200
4207296.67438 7544012.35336 32.525 200 200 200
4207296.69438 7544012.73936 32.528 200 200 200
4207294.837379999 7544012.635360001 31.596 200 200 200
4207297.11138 7544014.43836 31.385 200 200 200
4207297.32738 7544012.73336 32.418 200 200 200
4207295.32838 7544014.15036 31.561 200 200 200
4207297.56138 7544013.6513600005 31.712 200 200 200
4207294.62438 7544011.6683600005 31.111 200 200 200
4207297.23638 7544013.38136 32.325 200 200 200
4207296.44838 7544013.66136 32.187 200 200 200
4207297.65138 7544013.32136 30.389 200 200 200
4207295.04538 7544011.59236 31.572 200 200 200
4207297.291379999 7544013.80036 30.185000000000002 200 200 200
4207296.31538 7544012.05136 32.442 200 200 200
4207296.61238 7544011.78936 32.26 200 200 200
4207296.72438 7544013.635360001 31.847 200 200 200
4207296.29538 7544013.52236 31.86 200 200 200
4207297.42338 7544013.55136 31.904 200 200 200
4207297.10738 7544011.447360001 32.486000000000004 200 200 200
4207298.59938 7544013.14236 31.806 200 200 200
4207297.59938 7544012.75536 32.419000000000004 200 200 200
4207298.598379999 7544012.54836 32.036 200 200 200
4207295.06638 7544011.77936 31.643 200 200 200
4207295.98138 7544013.53636 31.782 200 200 200
4207294.04938 7544011.41236 30.468 200 200 200
4207297.28138 7544013.265360001 32.303 200 200 200
4207298.416379999 7544012.97736 32.024 200 200 200
4207295.97638 7544012.254360001 32.46 200 200 200
4207297.34638 7544014.464360001 30.841 200 200 200
4207295.99838 7544013.03136 32.264 200 200 200
4207294.85538 7544014.09836 31.496000000000002 200 200 200
4207297.82938 7544013.66736 30.47 200 200 200
4207295.59438 7544013.03936 32.097 200 200 200
4207295.78238 7544013.02536 31.629 200 200 200
4207296.51838 7544012.23236 32.426 200 200 200
4207296.08838 7544012.32436 32.459 200 200 200
4207294.33838 7544011.63036 30.641000000000002 200 200 200
4207296.43038 7544013.66136 31.896 200 200 200
4207295.27338 7544012.4413600005 32.554 200 200 200
4207295.03738 7544013.02536 31.663 200 200 200
4207294.35538 7544012.03336 30.872 200 200 200
4207299.12438 7544012.43136 31.674 200 200 200
4207299.63438 7544012.54036 32.156 200 200 200
4207299.206379999 7544012.17836 32.2 200 200 200
4207299.02638 7544012.95736 30.582 200 200 200
4207299.121379999 7544012.48436 31.761 200 200 200
4207299.30238 7544011.737360001 30.601 200 200 200
4207298.72438 7544011.97836 31.379 200 200 200
4207299.075379999 7544012.55836 31.835 200 200 200
4207298.95738 7544012.02536 32.279 200 200 200
4207298.6443799995 7544012.83636 30.52 200 200 200
4207299.55038 7544012.17836 30.44 200 200 200
4207299.43138 7544012.38136 32.159 200 200 200
4207298.87438 7544012.87836 31.611 200 200 200
4207291.308379999 7544011.59636 26.924 200 200 200
4207291.45738 7544011.02236 27.661 200 200 200
4207292.18238 7544012.294360001 27.101 200 200 200
4207291.314379999 7544011.038360001 28.167 200 200 200
4207292.35838 7544011.38636 27.644000000000002 200 200 200
4207291.00438 7544011.05236 27.772000000000002 200 200 200
4207292.82938 7544011.38036 27.837 200 200 200
4207291.4853799995 7544011.88036 27.07 200 200 200
4207292.75038 7544012.03536 26.971 200 200 200
4207291.97438 7544011.58836 27.65 200 200 200
4207292.854379999 7544011.61036 27.591 200 200 200
4207292.35738 7544011.41036 29.102 200 200 200
4207290.11838 7544011.88036 25.135 200 200 200
4207291.35738 7544013.6173600005 26.151 200 200 200
4207290.40338 7544012.544360001 25.501 200 200 200
4207291.28738 7544011.57036 26.886 200 200 200
4207290.95238 7544012.85836 26.295 200 200 200
4207291.37838 7544013.20436 26.352 200 200 200
4207291.507379999 7544011.04636 25.962 200 200 200
4207291.48938 7544012.90436 26.563000000000002 200 200 200
4207290.65638 7544011.06236 25.615000000000002 200 200 200
4207290.0363799995 7544011.135360001 24.874000000000002 200 200 200
4207292.77238 7544013.91736 26.443 200 200 200
4207291.47038 7544014.03636 26.002000000000002 200 200 200
4207291.21938 7544011.24136 25.562 200 200 200
4207291.28938 7544010.85336 25.534 200 200 200
4207290.55238 7544013.44836 25.758000000000003 200 200 200
4207291.984379999 7544014.17736 26.318 200 200 200
4207291.342379999 7544011.5433600005 26.228 200 200 200
4207291.92138 7544014.92636 25.792 200 200 200
4207292.88638 7544013.51236 26.441000000000003 200 200 200
4207290.44038 7544013.38136 25.772 200 200 200
4207290.62838 7544011.70636 25.763 200 200 200
4207290.7183799995 7544010.953360001 25.96 200 200 200
4207291.44438 7544011.90436 26.803 200 200 200
4207291.26738 7544013.17636 26.288 200 200 200
4207290.28838 7544012.12736 25.662 200 200 200
4207292.18738 7544012.42136 26.718 200 200 200
4207294.21038 7544013.32536 28.329 200 200 200
4207293.13638 7544012.32936 28.094 200 200 200
4207294.58938 7544013.77436 28.536 200 200 200
4207297.9513799995 7544012.62236 30.129 200 200 200
4207295.7923799995 7544013.83236 28.059 200 200 200
4207296.80738 7544014.521360001 27.869 200 200 200
4207295.79538 7544014.481360001 27.7 200 200 200
4207296.42638 7544014.464360001 27.717 200 200 200
4207293.94838 7544012.26636 28.113 200 200 200
4207294.76238 7544014.811360001 27.332 200 200 200
4207296.359379999 7544014.55336 27.701 200 200 200
4207295.03538 7544013.402360001 27.533 200 200 200
4207294.01438 7544012.35736 29.556 200 200 200
4207295.93038 7544014.23936 27.77 200 200 200
4207293.83838 7544013.55936 27.586 200 200 200
4207296.763379999 7544014.60736 27.804000000000002 200 200 200
4207294.11838 7544012.87236 28.606 200 200 200
4207294.905379999 7544013.106360001 28.68 200 200 200
4207297.89638 7544014.720360001 27.464 200 200 200
4207298.42538 7544013.84836 29.847 200 200 200
4207294.50638 7544013.89336 28.05 200 200 200
4207297.1273799995 7544013.88736 27.836 200 200 200
4207298.422379999 7544013.59136 30.056 200 200 200
4207297.71438 7544014.32436 27.625 200 200 200
4207294.19838 7544014.964360001 27.312 200 200 200
4207293.47838 7544013.28936 27.629 200 200 200
4207295.76138 7544012.43736 27.586 200 200 200
4207296.8773799995 7544014.97436 27.580000000000002 200 200 200
4207294.240379999 7544014.06836 27.69 200 200 200
4207297.9113799995 7544012.896360001 26.990000000000002 200 200 200
4207294.01538 7544011.84336 29.62 200 200 200
4207293.59138 7544014.61936 27.241 200 200 200
4207295.859379999 7544013.589360001 28.154 200 200 200
4207294.38638 7544013.947360001 28.441000000000003 200 200 200
4207295.25438 7544014.25536 27.728 200 200 200
4207294.38638 7544013.28336 28.648 200 200 200
4207294.16438 7544013.20036 28.459 200 200 200
4207298.399379999 7544012.21036 27.757 200 200 200
4207294.42738 7544013.1683600005 28.917 200 200 200
4207295.26038 7544014.82536 27.194 200 200 200
4207293.35538 7544012.027360001 28.559 200 200 200
4207297.08238 7544013.79236 27.787 200 200 200
4207295.88338 7544013.67136 28.025 200 200 200
4207294.84738 7544012.92636 29.534 200 200 200
4207295.52538 7544013.81436 27.842 200 200 200
4207293.882379999 7544013.544360001 27.675 200 200 200
4207297.42438 7544013.73836 27.651 200 200 200
4207297.18238 7544014.79136 26.952 200 200 200
4207294.5023799995 7544012.42736 30.115000000000002 200 200 200
4207293.57938 7544012.37136 28.603 200 200 200
4207293.9683799995 7544012.3163600005 29.608 200 200 200
4207296.1673799995 7544011.61636 27.785 200 200 200
4207294.0023799995 7544012.33736 27.579 200 200 200
4207293.57138 7544012.09936 29.155 200 200 200
4207294.99138 7544014.396360001 27.216 200 200 200
4207296.78538 7544014.34636 27.937 200 200 200
4207294.31038 7544011.28036 29.661 200 200 200
4207293.99238 7544012.004360001 29.667 200 200 200
4207299.76838 7544011.42536 28.342 200 200 200
4207299.71438 7544012.00236 28.758 200 200 200
4207299.76538 7544012.214360001 29.73 200 200 200
4207299.78938 7544011.45536 28.43 200 200 200
4207298.88538 7544011.51136 27.168 200 200 200
4207299.922379999 7544012.10936 29.822 200 200 200
4207299.39238 7544012.18436 29.082 200 200 200
4207298.28738 7544012.09936 26.339 200 200 200
4207298.3263799995 7544014.63036 26.011 200 200 200
4207298.47538 7544014.1003600005 26.735 200 200 200
4207297.87938 7544014.61136 25.768 200 200 200
4207293.41938 7544014.75836 26.717 200 200 200
4207293.155379999 7544012.48236 26.873 200 200 200
4207298.54638 7544014.106360001 26.532 200 200 200
4207296.87938 7544012.42136 26.768 200 200 200
4207298.68138 7544013.99536 26.548000000000002 200 200 200
4207297.43738 7544014.60536 26.59 200 200 200
4207298.05138 7544013.19036 26.704 200 200 200
4207297.9173799995 7544011.87036 26.913 200 200 200
4207293.33638 7544013.38936 26.598 200 200 200
4207293.15038 7544014.34236 26.65 200 200 200
4207298.6953799995 7544012.00036 26.192 200 200 200
4207299.62538 7544013.20236 25.622 200 200 200
4207298.73338 7544014.25136 26.060000000000002 200 200 200
4207299.59938 7544014.038360001 25.613 200 200 200
4207299.43838 7544011.08436 26.599 200 200 200
4207299.06938 7544013.77436 26.302 200 200 200
4207298.98238 7544013.34136 26.261 200 200 200
4207299.5533799995 7544013.885360001 25.668 200 200 200
4207298.72838 7544013.40636 26.55 200 200 200
4207299.9453799995 7544011.9183600005 25.68 200 200 200
4207298.939379999 7544014.57336 25.812 200 200 200
4207299.5763799995 7544014.04036 25.639 200 200 200
4207299.83938 7544011.19936 25.457 200 200 200
4207299.94138 7544014.112360001 25.385 200 200 200
4207299.07138 7544013.45436 26.272 200 200 200
4207299.09938 7544011.237360001 26.542 200 200 200
4207299.3433799995 7544011.23536 26.797 200 200 200
4207299.484379999 7544011.25536 26.48 200 200 200
4207298.922379999 7544012.50636 26.028 200 200 200
4207294.85338 7544010.61536 21.463 200 200 200
4207291.99738 7544009.48036 12.928999999999998 200 200 200
4207292.15638 7544009.63136 12.825 200 200 200
4207291.52838 7544007.57736 11.769000000000002 200 200 200
4207290.54838 7544007.62236 12.396999999999998 200 200 200
4207290.89038 7544009.305360001 13.067 200 200 200
4207290.81938 7544008.06336 12.248000000000001 200 200 200
4207291.58038 7544007.17136 11.513000000000002 200 200 200
4207290.098379999 7544007.970360001 12.234000000000002 200 200 200
4207292.97738 7544007.7593600005 11.417000000000002 200 200 200
4207291.57338 7544006.93936 12.001000000000001 200 200 200
4207292.9173799995 7544009.25236 11.989 200 200 200
4207289.89038 7544008.76736 12.315000000000001 200 200 200
4207289.23638 7544008.71936 12.312000000000001 200 200 200
4207291.81738 7544007.95636 11.963999999999999 200 200 200
4207289.90038 7544008.45136 13.184999999999999 200 200 200
4207291.40738 7544009.14236 13.277000000000001 200 200 200
4207289.18738 7544008.31436 12.639 200 200 200
4207290.97738 7544007.99636 12.238 200 200 200
4207292.52238 7544009.69936 12.508 200 200 200
4207290.32438 7544008.9583600005 13.276 200 200 200
4207290.524379999 7544008.11136 12.296 200 200 200
4207291.0763799995 7544007.3103600005 11.862000000000002 200 200 200
4207294.797379999 7544008.59436 14.462 200 200 200
4207295.13438 7544009.385360001 17.019 200 200 200
4207294.70338 7544009.04736 15.922 200 200 200
4207298.80638 7544006.64536 13.936 200 200 200
4207298.462379999 7544004.61636 12.044 200 200 200
4207296.1103799995 7544007.49536 11.643 200 200 200
4207296.60138 7544007.38836 11.978000000000002 200 200 200
4207298.24238 7544007.402360001 12.367 200 200 200
4207296.12038 7544009.345360001 13.309000000000001 200 200 200
4207294.73738 7544004.31236 10.954 200 200 200
4207296.30438 7544009.021360001 13.192 200 200 200
4207296.00338 7544007.930360001 12.57 200 200 200
4207295.05238 7544008.1913600005 12.774000000000001 200 200 200
4207298.69338 7544004.68836 11.777000000000001 200 200 200
4207295.77938 7544009.57936 13.416 200 200 200
4207298.84538 7544007.27936 12.792000000000002 200 200 200
4207298.780379999 7544004.81336 11.926000000000002 200 200 200
4207296.5023799995 7544007.52336 12.545000000000002 200 200 200
4207298.70438 7544006.2253600005 12.068999999999999 200 200 200
4207294.23138 7544008.42936 11.812999999999999 200 200 200
4207294.49438 7544007.9583600005 11.001999999999999 200 200 200
4207295.71038 7544008.08536 12.565000000000001 200 200 200
4207298.62438 7544004.67036 11.853000000000002 200 200 200
4207295.69438 7544007.368360001 10.921 200 200 200
4207294.337379999 7544009.23236 13.392 200 200 200
4207297.501379999 7544005.15036 11.404 200 200 200
4207296.763379999 7544008.52236 12.876999999999999 200 200 200
4207295.53938 7544007.83736 12.0 200 200 200
4207293.82238 7544009.54836 13.128 200 200 200
4207296.91538 7544006.98636 10.887 200 200 200
4207295.672379999 7544009.06336 13.2 200 200 200
4207296.01238 7544008.87836 13.129999999999999 200 200 200
4207295.40138 7544009.1743600005 13.183 200 200 200
4207293.23638 7544009.80636 12.979 200 200 200
4207296.63538 7544007.69036 12.668 200 200 200
4207296.06838 7544008.2763600005 12.651 200 200 200
4207298.90338 7544007.85536 13.209 200 200 200
4207298.609379999 7544009.60736 12.758 200 200 200
4207295.46638 7544007.7083600005 12.370000000000001 200 200 200
4207296.36938 7544007.3163600005 11.091000000000001 200 200 200
4207296.83938 7544007.19936 11.286999999999999 200 200 200
4207297.12938 7544007.85936 12.756 200 200 200
4207298.63738 7544009.03136 12.633 200 200 200
4207297.94338 7544007.98636 12.604 200 200 200
4207298.18638 7544008.7593600005 12.649999999999999 200 200 200
4207299.99138 7544009.544360001 12.475000000000001 200 200 200
4207299.689379999 7544008.69336 13.178999999999998 200 200 200
4207299.10338 7544006.45636 13.828 200 200 200
4207299.9453799995 7544005.15636 13.649000000000001 200 200 200
4207299.42038 7544006.84936 13.617 200 200 200
4207299.03738 7544005.72136 12.539000000000001 200 200 200
4207299.90238 7544005.11336 12.229 200 200 200
4207289.40338 7544008.544360001 10.364999999999998 200 200 200
4207289.9343799995 7544007.0263600005 10.036999999999999 200 200 200
4207292.79338 7544006.51436 10.559999999999999 200 200 200
4207289.29338 7544007.95636 10.366 200 200 200
4207289.98238 7544006.28336 10.068999999999999 200 200 200
4207291.15338 7544005.96336 10.273 200 200 200
4207290.43238 7544006.02536 10.229 200 200 200
4207291.01638 7544006.65936 10.204 200 200 200
4207291.064379999 7544005.8503600005 10.262 200 200 200
4207289.2923799995 7544009.51636 10.061 200 200 200
4207289.53838 7544009.34736 10.219000000000001 200 200 200
4207290.12238 7544008.032360001 10.710999999999999 200 200 200
4207293.55138 7544008.02436 10.729 200 200 200
4207294.638379999 7544007.680360001 10.629000000000001 200 200 200
4207297.28738 7544004.805360001 10.751999999999999 200 200 200
4207296.22738 7544006.99636 10.184999999999999 200 200 200
4207297.78338 7544005.05136 10.710999999999999 200 200 200
4207299.00638 7544004.70536 10.561 200 200 200
4207289.422379999 7544011.31436 15.381 200 200 200
4207290.12838 7544012.48636 14.697000000000001 200 200 200
4207290.496379999 7544013.9753600005 15.195 200 200 200
4207290.23038 7544013.11036 15.164 200 200 200
4207290.27238 7544011.976360001 15.699 200 200 200
4207290.52038 7544013.6173600005 15.242 200 200 200
4207290.18038 7544012.06736 15.709 200 200 200
4207290.41238 7544011.15536 15.606 200 200 200
4207289.28538 7544011.4353600005 15.479000000000001 200 200 200
4207290.27038 7544012.20636 15.732000000000001 200 200 200
4207290.71138 7544013.919360001 14.487000000000002 200 200 200
4207291.44838 7544011.0603600005 14.333000000000002 200 200 200
4207292.78138 7544011.99036 14.013000000000002 200 200 200
4207290.496379999 7544013.99736 15.181000000000001 200 200 200
4207291.10538 7544013.873360001 13.881 200 200 200
4207292.76038 7544011.84936 13.940000000000001 200 200 200
4207290.73138 7544014.839360001 14.376000000000001 200 200 200
4207290.45538 7544014.50736 14.788 200 200 200
4207289.91038 7544013.68736 15.313 200 200 200
4207289.97438 7544010.41236 12.210999999999999 200 200 200
4207289.058379999 7544013.953360001 10.686 200 200 200
4207292.342379999 7544013.8103600005 12.71 200 200 200
4207290.31138 7544011.0663600005 12.184000000000001 200 200 200
4207289.55238 7544013.856360001 10.843 200 200 200
4207292.72838 7544011.44936 13.189 200 200 200
4207292.35338 7544013.561360001 12.158999999999999 200 200 200
4207290.92538 7544009.89136 12.178 200 200 200
4207292.63338 7544009.80036 11.213000000000001 200 200 200
4207290.155379999 7544011.6343600005 11.916 200 200 200
4207289.17938 7544011.60836 12.228000000000002 200 200 200
4207290.10838 7544012.03536 13.3 200 200 200
4207291.38938 7544012.48436 13.460999999999999 200 200 200
4207292.68238 7544014.64836 12.437999999999999 200 200 200
4207291.90638 7544010.21736 12.822 200 200 200
4207290.416379999 7544012.89236 12.088999999999999 200 200 200
4207292.859379999 7544010.08436 12.501000000000001 200 200 200
4207290.337379999 7544010.89136 11.972999999999999 200 200 200
4207289.63338 7544011.998360001 11.966999999999999 200 200 200
4207291.473379999 7544014.81536 13.187999999999999 200 200 200
4207290.55238 7544012.91636 12.088999999999999 200 200 200
4207291.899379999 7544011.0263600005 13.018 200 200 200
4207293.02838 7544014.63836 11.995999999999999 200 200 200
4207289.88338 7544012.01436 11.879000000000001 200 200 200
4207291.65638 7544014.5833600005 13.081 200 200 200
4207292.615379999 7544014.42236 12.43 200 200 200
4207291.16038 7544011.06236 12.645 200 200 200
4207292.38638 7544013.22436 13.029 200 200 200
4207294.314379999 7544011.00836 12.966999999999999 200 200 200
4207298.433379999 7544012.68936 11.678999999999998 200 200 200
4207295.86438 7544012.59436 12.898 200 200 200
4207298.15138 7544013.18836 10.854 200 200 200
4207293.72238 7544012.00236 12.952000000000002 200 200 200
4207297.39638 7544013.05736 11.513000000000002 200 200 200
4207298.64838 7544011.69636 12.555 200 200 200
4207296.109379999 7544012.51836 13.091999999999999 200 200 200
4207296.18038 7544010.754360001 13.364 200 200 200
4207297.42538 7544012.095360001 12.805 200 200 200
4207295.75838 7544012.7593600005 12.411999999999999 200 200 200
4207293.1953799995 7544009.94336 12.721 200 200 200
4207296.49838 7544010.97236 13.259 200 200 200
4207293.592379999 7544010.89136 12.940999999999999 200 200 200
4207293.72838 7544014.81336 11.894000000000002 200 200 200
4207297.20738 7544009.95136 12.907 200 200 200
4207294.14338 7544014.6173600005 11.367999999999999 200 200 200
4207297.0363799995 7544011.80336 13.152000000000001 200 200 200
4207296.86338 7544010.7083600005 13.052 200 200 200
4207294.06938 7544013.64936 12.026 200 200 200
4207294.62938 7544014.2933600005 12.114 200 200 200
4207295.80138 7544010.26936 13.271999999999998 200 200 200
4207293.40738 7544011.91036 12.966000000000001 200 200 200
4207296.29638 7544012.75536 12.629999999999999 200 200 200
4207296.65038 7544011.74936 13.341999999999999 200 200 200
4207295.69738 7544012.99736 11.987000000000002 200 200 200
4207293.9513799995 7544011.7933600005 12.895 200 200 200
4207293.77538 7544014.3843600005 11.892 200 200 200
4207294.11338 7544013.89736 12.007000000000001 200 200 200
4207293.41438 7544014.42636 11.876000000000001 200 200 200
4207294.90038 7544012.38336 12.568999999999999 200 200 200
4207297.17438 7544011.50536 13.097000000000001 200 200 200
4207295.82438 7544012.7253600005 12.552 200 200 200
4207293.18838 7544014.45036 11.887 200 200 200
4207297.02138 7544010.7763600005 13.038 200 200 200
4207296.24838 7544012.657360001 12.823 200 200 200
4207298.35638 7544013.05336 10.832999999999998 200 200 200
4207297.42538 7544011.18336 13.017 200 200 200
4207294.1673799995 7544012.260360001 11.921 200 200 200
4207296.56238 7544012.38336 13.059000000000001 200 200 200
4207293.77038 7544012.43936 11.331 200 200 200
4207293.70738 7544010.50536 12.926000000000002 200 200 200
4207298.30038 7544012.69936 11.526 200 200 200
4207298.73938 7544011.34236 12.665 200 200 200
4207296.89338 7544013.13036 11.914000000000001 200 200 200
4207294.78938 7544012.37736 12.504999999999999 200 200 200
4207295.59938 7544012.697360001 12.501000000000001 200 200 200
4207297.87438 7544012.9753600005 11.327000000000002 200 200 200
4207298.240379999 7544011.88636 12.7 200 200 200
4207294.71938 7544011.90036 12.77 200 200 200
4207298.61438 7544012.64536 11.693999999999999 200 200 200
4207293.40138 7544012.50036 11.835 200 200 200
4207297.189379999 7544013.05336 11.765 200 200 200
4207296.58238 7544011.75136 13.367 200 200 200
4207294.49438 7544011.71936 12.799 200 200 200
4207293.69238 7544013.0833600005 11.759 200 200 200
4207298.01438 7544013.08536 10.983 200 200 200
4207293.91838 7544012.55236 11.899999999999999 200 200 200
4207295.75038 7544011.1853600005 13.414000000000001 200 200 200
4207296.291379999 7544012.52036 13.093 200 200 200
4207297.60238 7544012.981360001 11.414000000000001 200 200 200
4207294.02038 7544011.54136 12.850999999999999 200 200 200
4207297.64838 7544011.66236 13.056999999999999 200 200 200
4207293.50338 7544014.53936 11.873999999999999 200 200 200
4207297.21938 7544011.68836 13.105 200 200 200
4207294.314379999 7544014.55336 12.004999999999999 200 200 200
4207293.66338 7544013.49036 12.04 200 200 200
4207295.73038 7544010.99636 13.317 200 200 200
4207296.67638 7544011.27236 13.328 200 200 200
4207299.0763799995 7544012.54836 11.014 200 200 200
4207299.03238 7544012.47736 10.965 200 200 200
4207299.86338 7544011.2593600005 11.532 200 200 200
4207299.39638 7544010.31336 12.77 200 200 200
4207298.94938 7544011.37836 12.247 200 200 200
4207299.01738 7544011.77336 12.097999999999999 200 200 200
4207299.9513799995 7544010.98436 11.793 200 200 200
4207298.99538 7544011.52936 12.155000000000001 200 200 200
4207299.07838 7544010.61136 12.837 200 200 200
4207299.59038 7544011.777360001 11.543 200 200 200
4207299.17038 7544010.84336 12.642 200 200 200
4207299.01838 7544012.322360001 11.869 200 200 200
4207299.11138 7544012.37136 11.64 200 200 200
4207299.32938 7544010.19936 12.785 200 200 200
4207292.78738 7544014.84936 10.075 200 200 200
4207298.85738 7544012.896360001 10.535 200 200 200
4207298.52538 7544013.01936 10.125 200 200 200
4207296.86838 7544013.19036 10.644000000000002 200 200 200
4207297.10238 7544013.30736 10.11 200 200 200
4207297.43738 7544013.03536 10.385000000000002 200 200 200
4207295.40338 7544013.55336 10.45 200 200 200
4207299.97138 7544011.06436 10.498000000000001 200 200 200
4207299.31238 7544012.282360001 10.477 200 200 200
