4207317.16238 7544014.85936 30.238 200 200 200
4207318.48938 7544016.54836 27.21 200 200 200
4207319.59138 7544014.44436 28.016000000000002 200 200 200
4207318.93238 7544013.20636 27.27 200 200 200
4207317.53138 7544014.038360001 29.88 200 200 200
4207320.01438 7544015.49136 28.056 200 200 200
4207317.85538 7544012.59236 28.433 200 200 200
4207318.01238 7544014.12236 29.474 200 200 200
4207318.67938 7544015.39136 28.305 200 200 200
4207317.35838 7544012.01636 28.622 200 200 200
4207319.59138 7544014.46936 28.041 200 200 200
4207317.71338 7544016.29836 29.241 200 200 200
4207318.02538 7544014.197360001 28.699 200 200 200
4207318.67738 7544016.42536 28.204 200 200 200
4207317.94638 7544015.004360001 29.173000000000002 200 200 200
4207317.90438 7544012.19836 28.316000000000003 200 200 200
4207318.08438 7544015.078360001 28.956 200 200 200
4207318.38938 7544012.43736 27.578 200 200 200
4207317.24138 7544013.52036 29.903000000000002 200 200 200
4207317.52838 7544016.18436 29.535 200 200 200
4207317.77638 7544015.18736 29.776 200 200 200
4207318.01238 7544015.07436 29.184 200 200 200
4207318.41038 7544015.09936 28.349 200 200 200
4207320.10638 7544015.86036 27.87 200 200 200
4207317.70738 7544012.82636 29.112000000000002 200 200 200
4207317.06138 7544012.03536 28.887 200 200 200
4207317.60038 7544012.62036 28.799 200 200 200
4207317.26438 7544012.123360001 28.822 200 200 200
4207318.33538 7544013.140360001 27.89 200 200 200
4207317.28138 7544016.91036 29.275000000000002 200 200 200
4207318.484379999 7544013.51236 28.3 200 200 200
4207319.8773799995 7544016.09936 28.04 200 200 200
4207318.91338 7544012.72136 27.142 200 200 200
4207317.41238 7544015.00036 30.02 200 200 200
4207318.45738 7544014.2253600005 28.46 200 200 200
4207317.075379999 7544015.66236 29.812 200 200 200
4207318.86238 7544014.98436 28.303 200 200 200
4207317.35038 7544013.84636 30.01 200 200 200
4207318.655379999 7544016.3333600005 28.206 200 200 200
4207317.99538 7544013.45436 29.326 200 200 200
4207319.2523799995 7544013.95736 28.166 200 200 200
4207318.72738 7544014.87136 28.318 200 200 200
4207318.18238 7544015.419360001 28.416 200 200 200
4207318.592379999 7544013.95936 28.518 200 200 200
4207317.3263799995 7544015.96236 29.59 200 200 200
4207318.42938 7544016.20236 28.284 200 200 200
4207317.80638 7544012.788360001 28.631 200 200 200
4207317.46938 7544012.4013600005 28.626 200 200 200
4207318.416379999 7544012.03536 27.372 200 200 200
4207318.5423799995 7544016.15436 28.248 200 200 200
4207318.13138 7544015.04636 28.831 200 200 200
4207318.10738 7544016.55836 28.489 200 200 200
4207317.44838 7544012.13136 28.633 200 200 200
4207321.280379999 7544022.5663600005 28.776 200 200 200
4207320.36238 7544021.998360001 27.060000000000002 200 200 200
4207317.49138 7544018.4243600005 28.376 200 200 200
4207321.62538 7544021.56536 28.676000000000002 200 200 200
4207317.38038 7544017.53536 28.588 200 200 200
4207321.38638 7544022.11336 27.913 200 200 200
4207321.723379999 7544019.203360001 27.403 200 200 200
4207321.13538 7544019.737360001 27.336 200 200 200
4207321.3603799995 7544020.49636 27.179000000000002 200 200 200
4207321.61438 7544018.52336 27.406 200 200 200
4207321.52238 7544022.35236 27.768 200 200 200
4207317.81138 7544018.67636 28.105 200 200 200
4207321.31638 7544020.44236 27.091 200 200 200
4207317.25538 7544018.92036 27.5 200 200 200
4207320.27238 7544022.42336 26.999000000000002 200 200 200
4207321.376379999 7544021.58136 28.623 200 200 200
4207317.60538 7544018.5093600005 28.311 200 200 200
4207317.79638 7544018.26336 27.76 200 200 200
4207321.67938 7544018.72836 27.427 200 200 200
4207321.649379999 7544020.22836 27.517 200 200 200
4207321.42338 7544021.51136 28.587 200 200 200
4207321.36838 7544021.98236 27.675 200 200 200
4207321.13738 7544020.28336 27.094 200 200 200
4207317.19838 7544017.78436 28.593 200 200 200
4207321.0023799995 7544019.37136 27.306 200 200 200
4207317.46938 7544018.203360001 28.445 200 200 200
4207321.422379999 7544020.697360001 27.441000000000003 200 200 200
4207317.54638 7544017.87536 28.01 200 200 200
4207318.06938 7544018.40636 27.543 200 200 200
4207317.19938 7544019.46736 28.121000000000002 200 200 200
4207321.06938 7544019.328360001 27.32 200 200 200
4207318.34738 7544017.754360001 27.294 200 200 200
4207321.575379999 7544022.16136 28.775000000000002 200 200 200
4207323.365379999 7544016.42536 27.112000000000002 200 200 200
4207322.774379999 7544016.6173600005 27.295 200 200 200
4207323.89638 7544016.87436 27.624000000000002 200 200 200
4207325.32438 7544016.73936 27.254 200 200 200
4207324.64138 7544016.71336 27.556 200 200 200
4207325.62238 7544016.71536 26.952 200 200 200
4207323.96938 7544016.44936 27.394000000000002 200 200 200
4207322.44338 7544016.03136 27.041 200 200 200
4207322.03438 7544016.39536 27.093 200 200 200
4207323.024379999 7544016.2763600005 27.254 200 200 200
4207324.43138 7544019.31836 28.733 200 200 200
4207326.62338 7544019.33236 28.516000000000002 200 200 200
4207324.47438 7544022.555360001 29.313000000000002 200 200 200
4207323.01838 7544021.76836 28.881 200 200 200
4207322.59438 7544020.59336 28.945 200 200 200
4207324.61338 7544020.83436 29.597 200 200 200
4207322.16038 7544020.91136 27.82 200 200 200
4207324.49238 7544017.04536 28.308 200 200 200
4207322.54838 7544020.470360001 29.1 200 200 200
4207326.11138 7544020.80036 29.086000000000002 200 200 200
4207322.36338 7544020.53636 27.931 200 200 200
4207324.07138 7544017.07636 27.873 200 200 200
4207327.3943799995 7544022.11936 28.819 200 200 200
4207326.2693799995 7544017.46236 27.203 200 200 200
4207324.13038 7544017.31536 28.324 200 200 200
4207327.05538 7544021.92536 28.949 200 200 200
4207327.27338 7544020.14836 28.512 200 200 200
4207325.609379999 7544021.73236 29.162 200 200 200
4207321.922379999 7544019.86436 27.476 200 200 200
4207322.46338 7544020.6173600005 28.678 200 200 200
4207323.05638 7544018.288360001 27.521 200 200 200
4207324.189379999 7544018.86536 28.451 200 200 200
4207322.99538 7544021.88136 28.89 200 200 200
4207322.507379999 7544019.51636 27.627000000000002 200 200 200
4207323.48038 7544018.15336 27.806 200 200 200
4207325.38138 7544019.10936 28.616 200 200 200
4207326.40738 7544017.38236 27.041 200 200 200
4207326.66338 7544018.714360001 27.555 200 200 200
4207326.52638 7544018.67836 27.695 200 200 200
4207325.962379999 7544020.38136 28.651 200 200 200
4207321.98938 7544019.93436 27.5 200 200 200
4207323.17438 7544017.22136 27.459 200 200 200
4207322.1673799995 7544021.339360001 28.646 200 200 200
4207322.01038 7544021.31536 28.646 200 200 200
4207325.91838 7544017.80636 27.852 200 200 200
4207323.19838 7544021.7083600005 28.997 200 200 200
4207324.62038 7544020.22236 29.282 200 200 200
4207325.26838 7544019.061360001 28.604 200 200 200
4207324.61838 7544018.13236 28.611 200 200 200
4207326.78538 7544021.16436 29.068 200 200 200
4207326.35838 7544017.53336 27.240000000000002 200 200 200
4207325.34638 7544020.38736 29.054000000000002 200 200 200
4207325.19838 7544022.81336 29.12 200 200 200
4207326.19938 7544020.96336 29.133 200 200 200
4207322.16238 7544020.589360001 27.764 200 200 200
4207321.87438 7544020.23036 27.53 200 200 200
4207325.75038 7544018.12036 28.389 200 200 200
4207324.39038 7544020.64336 29.486 200 200 200
4207324.87538 7544019.94836 28.948 200 200 200
4207325.1103799995 7544021.98236 29.216 200 200 200
4207327.03438 7544019.10936 28.245 200 200 200
4207323.15238 7544020.71336 29.275000000000002 200 200 200
4207325.36938 7544020.29136 28.98 200 200 200
4207325.60538 7544022.54536 29.141000000000002 200 200 200
4207322.77138 7544020.0093600005 29.278 200 200 200
4207326.50938 7544019.26836 28.568 200 200 200
4207323.6273799995 7544018.62836 28.353 200 200 200
4207324.206379999 7544019.4013600005 28.666 200 200 200
4207323.13038 7544020.4013600005 29.346 200 200 200
4207321.73238 7544022.54536 28.766000000000002 200 200 200
4207325.922379999 7544022.390360001 29.172 200 200 200
4207323.8203799995 7544021.55736 29.626 200 200 200
4207326.30038 7544020.58136 28.598 200 200 200
4207324.33038 7544017.91136 28.412 200 200 200
4207321.757379999 7544020.697360001 27.696 200 200 200
4207323.60238 7544021.20736 29.215 200 200 200
4207325.25838 7544020.19436 28.906 200 200 200
4207324.35838 7544019.5663600005 29.018 200 200 200
4207325.67938 7544021.05436 29.166 200 200 200
4207327.35138 7544019.17336 28.181 200 200 200
4207326.67638 7544017.63336 27.049 200 200 200
4207326.1953799995 7544018.98836 28.484 200 200 200
4207325.126379999 7544020.0493600005 28.782 200 200 200
4207326.18038 7544020.748360001 28.999000000000002 200 200 200
4207324.40738 7544019.38936 28.782 200 200 200
4207327.44438 7544022.27236 28.473 200 200 200
4207323.36738 7544019.862360001 28.803 200 200 200
4207323.38738 7544018.70436 27.88 200 200 200
4207326.32938 7544018.072360001 27.468 200 200 200
4207325.38338 7544018.49936 28.644000000000002 200 200 200
4207326.399379999 7544019.03036 28.421 200 200 200
4207326.26438 7544021.66236 29.116 200 200 200
4207323.26138 7544019.58636 28.467 200 200 200
4207326.38738 7544018.430360001 28.004 200 200 200
4207324.564379999 7544022.78136 29.32 200 200 200
4207324.72538 7544019.20136 28.674 200 200 200
4207326.99538 7544021.09236 28.728 200 200 200
4207321.77738 7544022.27236 28.76 200 200 200
4207324.80638 7544019.95436 29.036 200 200 200
4207327.223379999 7544021.1683600005 28.525000000000002 200 200 200
4207326.92638 7544018.90836 28.021 200 200 200
4207327.3263799995 7544021.64136 27.638 200 200 200
4207323.024379999 7544019.17736 27.88 200 200 200
4207323.70438 7544017.74636 28.071 200 200 200
4207322.54038 7544020.06536 28.261 200 200 200
4207326.96538 7544021.811360001 28.964000000000002 200 200 200
4207326.78238 7544019.32636 28.441000000000003 200 200 200
4207322.81738 7544019.46136 28.062 200 200 200
4207327.25038 7544020.510360001 28.503 200 200 200
4207326.27038 7544017.36536 27.117 200 200 200
4207326.564379999 7544020.86036 28.947 200 200 200
4207325.53838 7544022.70236 29.125 200 200 200
4207322.8773799995 7544017.99036 27.490000000000002 200 200 200
4207327.08238 7544021.555360001 28.844 200 200 200
4207324.37438 7544020.07936 29.221 200 200 200
4207325.12538 7544020.101360001 28.87 200 200 200
4207326.32838 7544022.45536 29.109 200 200 200
4207325.28738 7544017.37636 27.898 200 200 200
4207325.64838 7544017.67136 27.88 200 200 200
4207324.15638 7544019.51436 28.942 200 200 200
4207326.06238 7544021.527360001 29.118000000000002 200 200 200
4207317.66438 7544014.67036 24.374000000000002 200 200 200
4207319.71038 7544012.82436 26.687 200 200 200
4207319.132379999 7544015.14736 26.906 200 200 200
4207318.109379999 7544014.56736 24.759 200 200 200
4207319.950379999 7544014.25536 26.755 200 200 200
4207318.15738 7544014.15636 24.719 200 200 200
4207318.15238 7544015.2253600005 24.781 200 200 200
4207318.18738 7544015.37636 26.705000000000002 200 200 200
4207318.257379999 7544015.43136 26.539 200 200 200
4207321.64138 7544014.61136 23.978 200 200 200
4207320.21338 7544014.96836 24.291 200 200 200
4207320.621379999 7544012.322360001 26.286 200 200 200
4207319.20538 7544013.94936 26.923000000000002 200 200 200
4207321.172379999 7544013.21236 24.073 200 200 200
4207320.29938 7544012.86036 26.55 200 200 200
4207320.93838 7544014.31336 25.706 200 200 200
4207321.04438 7544014.79136 26.025 200 200 200
4207319.10238 7544016.055360001 24.36 200 200 200
4207320.4513799995 7544014.23536 26.466 200 200 200
4207318.06638 7544014.38036 24.7 200 200 200
4207321.27038 7544014.50136 26.058 200 200 200
4207319.65938 7544013.80436 26.777 200 200 200
4207320.01838 7544013.06936 24.324 200 200 200
4207319.49838 7544014.16736 26.805 200 200 200
4207319.348379999 7544016.50836 24.35 200 200 200
4207320.59438 7544012.13136 23.869 200 200 200
4207318.88138 7544014.28736 24.605 200 200 200
4207320.50638 7544012.17536 26.454 200 200 200
4207318.27138 7544013.86336 24.727 200 200 200
4207319.10038 7544015.59836 24.6 200 200 200
4207321.331379999 7544015.12736 26.246000000000002 200 200 200
4207320.95938 7544014.521360001 25.752000000000002 200 200 200
4207319.4113799995 7544012.41736 24.401 200 200 200
4207320.08038 7544014.430360001 24.367 200 200 200
4207317.206379999 7544012.70736 23.887 200 200 200
4207320.04838 7544013.11436 26.619 200 200 200
4207318.00538 7544013.50836 24.531 200 200 200
4207320.52838 7544012.53436 26.42 200 200 200
4207319.38638 7544013.83636 26.902 200 200 200
4207318.626379999 7544015.15936 24.773 200 200 200
4207321.77738 7544016.54836 26.163 200 200 200
4207319.6273799995 7544014.34636 24.481 200 200 200
4207321.30438 7544016.01136 26.287 200 200 200
4207318.18838 7544013.31736 24.41 200 200 200
4207319.37838 7544014.21536 24.534 200 200 200
4207318.626379999 7544015.77936 24.618000000000002 200 200 200
4207319.19338 7544014.78336 24.595 200 200 200
4207320.308379999 7544014.19536 24.247 200 200 200
4207320.939379999 7544014.68836 24.15 200 200 200
4207318.626379999 7544016.532360001 24.409 200 200 200
4207321.56738 7544018.00036 26.240000000000002 200 200 200
4207317.4283799995 7544021.00736 24.673000000000002 200 200 200
4207321.206379999 7544018.0663600005 26.224 200 200 200
4207321.439379999 7544016.98936 26.036 200 200 200
4207321.31738 7544018.05236 26.326 200 200 200
4207321.16938 7544017.601360001 25.791 200 200 200
4207318.70438 7544017.20436 26.32 200 200 200
4207320.9343799995 7544018.46536 26.136 200 200 200
4207317.31338 7544019.88636 25.118000000000002 200 200 200
4207321.26138 7544017.37836 25.822 200 200 200
4207324.66838 7544016.21636 24.677 200 200 200
4207327.09638 7544015.538360001 23.996000000000002 200 200 200
4207325.66938 7544016.027360001 24.23 200 200 200
4207324.462379999 7544016.58236 26.176000000000002 200 200 200
4207324.39538 7544015.8503600005 24.938000000000002 200 200 200
4207324.32838 7544015.362360001 25.064 200 200 200
4207326.07438 7544016.69336 25.497 200 200 200
4207326.44938 7544015.80736 24.861 200 200 200
4207325.3773799995 7544015.66236 24.225 200 200 200
4207324.39738 7544016.06736 24.819000000000003 200 200 200
4207326.00838 7544016.28436 25.469 200 200 200
4207322.35838 7544014.16736 25.793 200 200 200
4207324.92938 7544016.4413600005 26.664 200 200 200
4207322.34438 7544014.01836 25.34 200 200 200
4207325.79838 7544013.77836 23.83 200 200 200
4207326.1443799995 7544016.260360001 25.457 200 200 200
4207327.251379999 7544015.86636 24.129 200 200 200
4207323.67638 7544015.74136 26.167 200 200 200
4207322.26838 7544016.13336 26.607 200 200 200
4207324.66938 7544016.39136 24.609 200 200 200
4207324.72638 7544014.652360001 24.348 200 200 200
4207325.99438 7544014.59336 24.103 200 200 200
4207327.20238 7544016.74536 25.527 200 200 200
4207324.99738 7544015.05236 24.251 200 200 200
4207326.18838 7544016.64736 25.486 200 200 200
4207325.962379999 7544016.66536 26.866 200 200 200
4207326.797379999 7544016.67136 25.463 200 200 200
4207326.46938 7544014.69636 23.963 200 200 200
4207323.507379999 7544014.96036 24.321 200 200 200
4207324.92538 7544015.82336 24.257 200 200 200
4207322.96638 7544015.74536 26.835 200 200 200
4207325.7183799995 7544016.20436 25.33 200 200 200
4207326.79838 7544016.55636 25.428 200 200 200
4207321.90138 7544016.760360001 26.843 200 200 200
4207327.56038 7544016.13936 24.415 200 200 200
4207324.39538 7544016.44536 26.166 200 200 200
4207326.21138 7544016.74736 26.752000000000002 200 200 200
4207322.314379999 7544014.14236 25.756 200 200 200
4207324.17938 7544015.29636 24.507 200 200 200
4207324.13738 7544015.65436 25.601 200 200 200
4207326.31338 7544013.75636 24.1 200 200 200
4207325.51038 7544016.669360001 26.94 200 200 200
4207327.52238 7544016.4583600005 25.32 200 200 200
4207323.10238 7544015.765360001 26.798000000000002 200 200 200
4207324.27738 7544015.43136 25.366 200 200 200
4207322.18638 7544016.60736 26.036 200 200 200
4207326.63738 7544016.10736 24.335 200 200 200
4207326.30638 7544015.407360001 24.097 200 200 200
4207324.96638 7544016.45636 25.7 200 200 200
4207324.27038 7544015.46936 24.414 200 200 200
4207323.689379999 7544014.81936 25.683 200 200 200
4207324.68238 7544014.493360001 24.365000000000002 200 200 200
4207324.78138 7544016.50236 26.015 200 200 200
4207324.82238 7544016.697360001 26.188000000000002 200 200 200
4207325.78938 7544015.87836 25.224 200 200 200
4207324.51238 7544016.09336 26.011 200 200 200
4207323.3033799995 7544014.42636 25.868000000000002 200 200 200
4207326.02638 7544016.180360001 24.444000000000003 200 200 200
4207323.15038 7544015.82136 26.632 200 200 200
4207323.490379999 7544014.32636 25.466 200 200 200
4207322.7693799995 7544015.76136 26.466 200 200 200
4207324.155379999 7544015.49936 25.947 200 200 200
4207327.20538 7544018.36436 26.26 200 200 200
4207326.8033799995 7544018.03436 26.102 200 200 200
4207327.064379999 7544017.63936 26.823 200 200 200
4207327.03838 7544017.77036 25.615000000000002 200 200 200
4207325.69038 7544016.76236 25.531 200 200 200
4207327.18838 7544021.34436 26.466 200 200 200
4207326.4113799995 7544017.09636 26.858 200 200 200
4207327.39738 7544018.09036 25.634 200 200 200
4207327.263379999 7544017.8163600005 25.602 200 200 200
4207327.51838 7544019.11336 26.256 200 200 200
4207327.48038 7544021.16636 23.872 200 200 200
4207326.98038 7544018.004360001 26.306 200 200 200
4207326.68638 7544017.54136 26.468 200 200 200
4207324.23838 7544019.74536 23.827 200 200 200
4207327.26638 7544018.32636 26.629 200 200 200
4207325.85738 7544016.913360001 26.289 200 200 200
4207325.64138 7544016.95536 25.691000000000003 200 200 200
4207326.61138 7544017.65336 25.577 200 200 200
4207321.22438 7544022.88836 27.969 200 200 200
4207321.38438 7544023.16536 27.734 200 200 200
4207321.66438 7544023.10336 27.23 200 200 200
4207321.24138 7544023.33736 26.791 200 200 200
4207327.22738 7544024.62736 27.349 200 200 200
4207323.01038 7544022.89436 29.119 200 200 200
4207324.39838 7544023.953360001 28.124000000000002 200 200 200
4207323.90138 7544023.82036 28.188000000000002 200 200 200
4207322.13638 7544024.12636 28.425 200 200 200
4207323.72838 7544022.87236 29.377 200 200 200
4207323.751379999 7544023.248360001 29.254 200 200 200
4207324.564379999 7544022.851360001 29.331 200 200 200
4207322.291379999 7544023.85236 28.661 200 200 200
4207323.97538 7544023.79036 29.229 200 200 200
4207323.35138 7544023.8103600005 28.655 200 200 200
4207322.2693799995 7544023.13936 28.805 200 200 200
4207324.29938 7544023.90636 28.67 200 200 200
4207323.70538 7544023.379360001 29.212 200 200 200
4207321.81938 7544023.31436 27.315 200 200 200
4207327.098379999 7544023.13136 28.754 200 200 200
4207324.649379999 7544024.75836 27.7 200 200 200
4207324.92038 7544024.54036 27.77 200 200 200
4207322.44038 7544023.79236 27.902 200 200 200
4207327.14538 7544023.19036 28.639 200 200 200
4207322.76638 7544024.38736 27.103 200 200 200
4207324.65338 7544023.09936 29.326 200 200 200
4207325.23938 7544023.896360001 29.081 200 200 200
4207324.94838 7544023.180360001 29.198 200 200 200
4207323.03338 7544023.294360001 29.008 200 200 200
4207324.92138 7544024.80036 27.637 200 200 200
4207326.95738 7544024.9353600005 27.251 200 200 200
4207324.2693799995 7544023.21036 29.334 200 200 200
4207323.416379999 7544023.87036 28.831 200 200 200
4207325.98638 7544023.24636 29.126 200 200 200
4207326.07238 7544024.981360001 27.575 200 200 200
4207323.48638 7544023.90636 28.716 200 200 200
4207327.22738 7544024.40636 27.405 200 200 200
4207327.11238 7544024.44236 27.594 200 200 200
4207326.27838 7544024.12436 27.622 200 200 200
4207327.4113799995 7544023.19636 27.562 200 200 200
4207325.8943799995 7544024.27336 28.948 200 200 200
4207327.41238 7544023.4353600005 27.417 200 200 200
4207322.83238 7544024.14236 28.593 200 200 200
4207324.581379999 7544024.84636 27.659 200 200 200
4207323.01038 7544024.7423600005 27.286 200 200 200
4207321.280379999 7544024.17836 24.234 200 200 200
4207321.18638 7544024.39336 24.368000000000002 200 200 200
4207320.83538 7544024.91736 23.593 200 200 200
4207321.49438 7544022.98436 26.586 200 200 200
4207321.23138 7544024.70536 24.323 200 200 200
4207321.6613799995 7544023.78736 24.411 200 200 200
4207321.93238 7544023.657360001 24.479 200 200 200
4207322.82238 7544023.77936 25.127000000000002 200 200 200
4207322.46438 7544022.90636 23.828 200 200 200
4207322.65838 7544024.94536 23.842 200 200 200
4207324.57138 7544024.88336 25.553 200 200 200
4207322.99138 7544023.73336 24.521 200 200 200
4207321.58838 7544012.4353600005 23.664 200 200 200
4207321.72238 7544012.77936 23.707 200 200 200
4207321.54538 7544012.20636 23.644 200 200 200
4207325.01738 7544014.02836 21.880000000000003 200 200 200
4207324.314379999 7544013.68736 22.176000000000002 200 200 200
4207322.013379999 7544013.277360001 23.696 200 200 200
4207322.831379999 7544012.65336 23.487000000000002 200 200 200
4207327.04938 7544014.356360001 23.062 200 200 200
4207326.1673799995 7544014.078360001 23.317 200 200 200
4207322.8263799995 7544013.54036 23.554000000000002 200 200 200
4207322.15238 7544012.65936 23.61 200 200 200
4207327.365379999 7544013.20636 21.938000000000002 200 200 200
4207327.30638 7544014.11636 22.574 200 200 200
4207326.18138 7544013.85436 22.473 200 200 200
4207322.35338 7544013.16236 23.662 200 200 200
4207323.56338 7544012.01436 23.088 200 200 200
4207325.25638 7544013.8503600005 22.481 200 200 200
4207323.37538 7544012.62036 23.339 200 200 200
4207323.07738 7544013.03736 23.479 200 200 200
4207322.41438 7544014.45436 23.669 200 200 200
4207322.71338 7544013.54036 23.553 200 200 200
4207323.71938 7544012.35536 23.106 200 200 200
4207326.8203799995 7544014.28336 23.29 200 200 200
4207323.66038 7544014.45636 23.358 200 200 200
4207322.354379999 7544013.021360001 23.602 200 200 200
4207325.06338 7544014.12836 23.146 200 200 200
4207326.73338 7544013.21036 22.036 200 200 200
4207323.07338 7544014.368360001 23.421 200 200 200
4207325.530379999 7544013.59736 22.4 200 200 200
4207324.479379999 7544014.163360001 23.053 200 200 200
4207322.32938 7544013.36136 23.607 200 200 200
4207323.94138 7544012.81436 23.185000000000002 200 200 200
4207323.98238 7544013.83036 23.135 200 200 200
4207327.04638 7544014.28136 23.266 200 200 200
4207323.96038 7544013.69336 23.138 200 200 200
4207324.94938 7544014.118360001 23.297 200 200 200
4207324.14138 7544014.03036 23.092 200 200 200
4207327.19138 7544013.226360001 21.619 200 200 200
4207324.405379999 7544018.30236 23.61 200 200 200
4207322.76038 7544021.112360001 21.427 200 200 200
4207322.87038 7544021.05636 21.581 200 200 200
4207322.939379999 7544020.8503600005 21.548000000000002 200 200 200
4207321.86338 7544020.87036 18.384999999999998 200 200 200
4207322.172379999 7544020.81836 17.437 200 200 200
4207327.39538 7544023.62236 21.453000000000003 200 200 200
4207327.55738 7544020.95136 27.479 200 200 200
4207327.706379999 7544020.532360001 28.175 200 200 200
4207327.95938 7544019.890360001 28.065 200 200 200
4207327.78538 7544019.87636 27.621000000000002 200 200 200
4207327.950379999 7544019.55636 27.275 200 200 200
4207327.61838 7544018.79536 27.102 200 200 200
4207327.84438 7544019.94236 28.165 200 200 200
4207327.74238 7544019.5603600005 27.629 200 200 200
4207327.90938 7544019.91636 26.961 200 200 200
4207327.70738 7544022.25136 27.587 200 200 200
4207327.55638 7544019.29836 28.027 200 200 200
4207327.91438 7544014.82536 23.815 200 200 200
4207327.746379999 7544016.578360001 25.382 200 200 200
4207327.82238 7544016.56236 24.888 200 200 200
4207327.604379999 7544017.60936 25.546 200 200 200
4207327.80138 7544019.11536 26.854 200 200 200
4207327.69338 7544017.79036 25.542 200 200 200
4207327.9343799995 7544021.17636 23.697 200 200 200
4207327.78538 7544017.47236 25.525 200 200 200
4207327.80738 7544018.851360001 23.792 200 200 200
4207327.87538 7544017.40436 25.527 200 200 200
4207327.60038 7544020.39136 26.403 200 200 200
4207327.780379999 7544020.379360001 23.652 200 200 200
4207327.77238 7544024.57136 27.188000000000002 200 200 200
4207327.90938 7544024.277360001 27.171 200 200 200
4207327.97038 7544024.51636 24.73 200 200 200
4207327.5593799995 7544024.77836 24.925 200 200 200
4207327.78538 7544023.22836 25.357 200 200 200
4207327.59638 7544023.33536 25.848 200 200 200
4207327.78538 7544014.11636 22.285 200 200 200
4207327.9113799995 7544014.515360001 22.733 200 200 200
4207327.99138 7544013.97136 22.137999999999998 200 200 200
4207327.78838 7544013.69936 22.156 200 200 200
4207327.73638 7544015.1513600005 22.209 200 200 200
4207327.76438 7544013.82436 22.292 200 200 200
4207327.967379999 7544019.44336 23.537 200 200 200
4207321.26238 7544020.856360001 16.531 200 200 200
4207321.3093799995 7544020.385360001 15.148 200 200 200
4207321.166379999 7544020.862360001 15.439 200 200 200
4207321.27838 7544020.75036 16.914 200 200 200
4207318.29538 7544014.078360001 10.760000000000002 200 200 200
4207317.29838 7544015.419360001 12.053999999999998 200 200 200
4207317.41538 7544013.61336 10.945 200 200 200
4207317.13438 7544014.2993600005 11.344999999999999 200 200 200
4207318.07238 7544012.777360001 10.918 200 200 200
4207317.86438 7544013.50636 11.001000000000001 200 200 200
4207320.75038 7544019.75136 10.849 200 200 200
4207321.75838 7544016.77236 12.056000000000001 200 200 200
4207319.01038 7544017.61136 11.628 200 200 200
4207317.723379999 7544015.75136 10.792000000000002 200 200 200
4207318.41338 7544016.90436 12.440999999999999 200 200 200
4207321.0423799995 7544016.32336 11.835 200 200 200
4207320.53238 7544020.3333600005 11.645 200 200 200
4207317.587379999 7544016.80636 13.276 200 200 200
4207318.189379999 7544016.5603600005 12.411000000000001 200 200 200
4207318.2183799995 7544017.50636 11.779 200 200 200
4207318.39138 7544016.59836 11.143 200 200 200
4207320.60138 7544020.16436 12.956 200 200 200
4207321.354379999 7544016.87636 11.95 200 200 200
4207320.592379999 7544018.73436 11.165 200 200 200
4207319.655379999 7544016.15036 11.16 200 200 200
4207317.33838 7544016.44336 12.105 200 200 200
4207319.030379999 7544016.40536 10.693999999999999 200 200 200
4207318.229379999 7544017.80436 10.972000000000001 200 200 200
4207318.75338 7544016.794360001 11.038 200 200 200
4207318.416379999 7544017.34936 12.075 200 200 200
4207318.99238 7544016.77036 11.585 200 200 200
4207318.60238 7544017.30336 11.760000000000002 200 200 200
4207317.6673799995 7544016.72736 12.543 200 200 200
4207318.39238 7544016.50236 11.082 200 200 200
4207318.73038 7544016.79036 11.0 200 200 200
4207318.67038 7544017.21236 11.763000000000002 200 200 200
4207317.592379999 7544016.91736 12.969000000000001 200 200 200
4207320.854379999 7544020.14836 11.283999999999999 200 200 200
4207323.104379999 7544015.29036 11.542000000000002 200 200 200
4207325.15038 7544015.53536 11.953 200 200 200
4207324.47038 7544015.47936 12.152999999999999 200 200 200
4207324.365379999 7544015.13136 11.754999999999999 200 200 200
4207324.85238 7544015.4013600005 12.297 200 200 200
4207324.06538 7544016.027360001 11.947 200 200 200
4207326.08038 7544017.28536 11.166 200 200 200
4207327.11138 7544020.226360001 10.795000000000002 200 200 200
4207322.21438 7544018.35236 11.398 200 200 200
4207323.76138 7544016.87236 12.356000000000002 200 200 200
4207322.21138 7544017.87736 11.689 200 200 200
4207325.02538 7544017.49636 12.157 200 200 200
4207327.34738 7544020.54836 12.879999999999999 200 200 200
4207322.32738 7544018.2593600005 11.350999999999999 200 200 200
4207325.18538 7544016.04536 12.422 200 200 200
4207325.44138 7544015.99036 11.968 200 200 200
4207324.46338 7544016.21836 12.338000000000001 200 200 200
4207327.27538 7544020.83636 11.643 200 200 200
4207325.52338 7544016.24636 12.367999999999999 200 200 200
4207325.71038 7544016.351360001 11.960999999999999 200 200 200
4207323.07238 7544017.81836 11.454 200 200 200
4207324.06338 7544016.0833600005 12.085 200 200 200
4207325.598379999 7544018.163360001 11.421 200 200 200
4207322.68738 7544017.33736 11.692 200 200 200
4207326.234379999 7544018.18736 11.119 200 200 200
4207325.86838 7544016.96936 11.756 200 200 200
4207324.98338 7544015.930360001 12.398 200 200 200
4207327.01038 7544020.95736 12.614999999999998 200 200 200
4207323.16238 7544016.33536 11.896999999999998 200 200 200
4207323.81838 7544016.02336 11.921 200 200 200
4207325.68138 7544016.36336 10.957999999999998 200 200 200
4207327.62938 7544019.80936 10.934000000000001 200 200 200
4207323.90138 7544016.18836 12.285 200 200 200
4207323.64838 7544016.80236 12.344000000000001 200 200 200
4207322.26738 7544018.6683600005 10.82 200 200 200
4207326.172379999 7544018.25336 10.788 200 200 200
4207327.39038 7544022.16736 13.893 200 200 200
4207318.32138 7544024.57936 10.514 200 200 200
4207317.82138 7544024.79236 10.646 200 200 200
4207318.17638 7544024.77836 11.027999999999999 200 200 200
4207327.217379999 7544022.09636 10.686 200 200 200
4207327.15338 7544021.43836 10.675999999999998 200 200 200
4207327.34738 7544023.453360001 10.678 200 200 200
4207327.672379999 7544023.31436 12.928 200 200 200
4207326.70538 7544022.18136 12.963000000000001 200 200 200
4207326.81738 7544022.390360001 13.021999999999998 200 200 200
4207318.48038 7544013.726360001 10.605 200 200 200
4207318.84538 7544014.396360001 10.172 200 200 200
4207318.138379999 7544015.4013600005 10.334 200 200 200
4207317.11238 7544012.94936 10.288 200 200 200
4207318.13538 7544014.595360001 10.722000000000001 200 200 200
4207319.0933799995 7544014.396360001 10.161000000000001 200 200 200
4207317.37838 7544012.81436 10.584 200 200 200
4207317.90738 7544015.47136 10.661000000000001 200 200 200
4207318.251379999 7544015.09336 10.443999999999999 200 200 200
4207318.45838 7544014.89736 10.247 200 200 200
4207318.20438 7544014.70236 10.655999999999999 200 200 200
4207317.06738 7544013.45436 10.097000000000001 200 200 200
4207318.5023799995 7544014.74436 10.314 200 200 200
4207318.13638 7544015.16536 10.504999999999999 200 200 200
4207318.61338 7544014.44036 10.462 200 200 200
4207319.27038 7544014.80736 10.215 200 200 200
4207318.524379999 7544013.99136 10.510000000000002 200 200 200
4207319.109379999 7544015.62236 10.232 200 200 200
4207318.22438 7544016.02336 10.471 200 200 200
4207318.28738 7544016.48236 10.549 200 200 200
4207319.56538 7544019.49936 10.277999999999999 200 200 200
4207319.1613799995 7544019.7253600005 10.030000000000001 200 200 200
4207320.21138 7544020.15836 10.582 200 200 200
4207318.58338 7544016.51436 10.36 200 200 200
4207320.86338 7544015.65636 10.558 200 200 200
4207318.93638 7544018.21536 10.395 200 200 200
4207319.38538 7544019.87236 10.154 200 200 200
4207320.05738 7544020.339360001 10.311 200 200 200
4207321.22838 7544020.3333600005 10.443999999999999 200 200 200
4207318.89138 7544019.282360001 10.166 200 200 200
4207319.47538 7544019.58636 10.25 200 200 200
4207320.78938 7544018.680360001 10.178 200 200 200
4207325.8263799995 7544016.760360001 10.265 200 200 200
4207326.91538 7544019.48336 10.584 200 200 200
4207326.31138 7544018.1913600005 10.587 200 200 200
4207326.9173799995 7544020.89336 10.091999999999999 200 200 200
4207327.44038 7544018.322360001 10.475999999999999 200 200 200
4207324.72638 7544016.379360001 10.065000000000001 200 200 200
4207326.956379999 7544021.186360001 10.352 200 200 200
4207326.82438 7544021.20936 10.097000000000001 200 200 200
4207327.80238 7544018.36436 10.399999999999999 200 200 200
4207326.9113799995 7544020.09736 10.607 200 200 200
4207325.76038 7544016.55236 10.206 200 200 200
4207324.11838 7544019.203360001 10.614 200 200 200
4207326.89538 7544018.98636 10.582999999999998 200 200 200
4207326.62538 7544018.26936 10.675 200 200 200
4207325.825379999 7544017.76436 10.062000000000001 200 200 200
4207325.433379999 7544019.35436 10.148 200 200 200
4207318.84638 7544024.63936 10.072 200 200 200
4207319.11438 7544024.873360001 10.181000000000001 200 200 200
4207318.462379999 7544024.35336 10.203 200 200 200
4207317.99138 7544024.35936 10.011 200 200 200
4207317.69238 7544024.60936 10.332999999999998 200 200 200
4207327.44238 7544023.896360001 10.262 200 200 200
4207327.77838 7544019.68936 12.866 200 200 200
4207327.86238 7544019.04636 10.713999999999999 200 200 200
4207327.98938 7544019.30636 11.152000000000001 200 200 200
4207327.83338 7544023.19236 11.372 200 200 200
4207327.871379999 7544018.40636 10.349 200 200 200
4207327.95538 7544018.6743600005 10.584 200 200 200
