4207314.90138 7544011.13336 28.733 200 200 200
4207315.96938 7544010.839360001 28.391000000000002 200 200 200
4207315.39338 7544010.072360001 27.899 200 200 200
4207313.62538 7544010.79236 28.215 200 200 200
4207313.83638 7544010.16036 27.94 200 200 200
4207315.09138 7544010.71236 28.262 200 200 200
4207313.88038 7544010.16436 27.965 200 200 200
4207314.41938 7544010.33536 28.103 200 200 200
4207314.33538 7544009.97136 27.807000000000002 200 200 200
4207315.03938 7544010.28536 27.436 200 200 200
4207314.55038 7544010.70636 28.222 200 200 200
4207314.03338 7544010.54536 28.21 200 200 200
4207310.212379999 7544010.80036 24.443 200 200 200
4207313.5703799995 7544007.9583600005 24.125 200 200 200
4207311.06738 7544010.396360001 24.736 200 200 200
4207313.41538 7544007.78536 23.951 200 200 200
4207313.97638 7544008.53036 25.33 200 200 200
4207315.24938 7544008.64436 24.688000000000002 200 200 200
4207314.93738 7544008.38336 24.553 200 200 200
4207314.97738 7544008.35936 24.833 200 200 200
4207314.98238 7544008.31236 24.504 200 200 200
4207314.87938 7544009.85836 26.342 200 200 200
4207312.56538 7544009.47236 24.425 200 200 200
4207314.337379999 7544008.62036 25.305 200 200 200
4207315.314379999 7544008.52036 24.856 200 200 200
4207313.93638 7544008.373360001 25.055 200 200 200
4207315.4343799995 7544010.18836 26.755 200 200 200
4207314.30738 7544008.36936 24.423000000000002 200 200 200
4207312.774379999 7544009.57436 25.412 200 200 200
4207310.371379999 7544010.44236 24.491 200 200 200
4207315.2923799995 7544008.49936 24.869 200 200 200
4207310.59538 7544010.271360001 24.623 200 200 200
4207312.77838 7544009.663360001 25.131 200 200 200
4207313.31038 7544008.63036 24.614 200 200 200
4207312.68838 7544009.99536 25.021 200 200 200
4207314.51238 7544010.32136 26.481 200 200 200
4207314.71638 7544010.27536 26.483 200 200 200
4207313.808379999 7544008.25036 24.652 200 200 200
4207315.70938 7544008.493360001 24.199 200 200 200
4207313.956379999 7544008.34036 25.208 200 200 200
4207312.40138 7544009.74436 24.747 200 200 200
4207313.6103799995 7544009.32936 25.436 200 200 200
4207312.36738 7544010.68436 25.167 200 200 200
4207315.39338 7544009.13036 25.399 200 200 200
4207312.81638 7544010.21136 25.46 200 200 200
4207315.95538 7544009.12036 25.529 200 200 200
4207312.64638 7544009.62536 24.941000000000003 200 200 200
4207310.86338 7544010.46036 24.708 200 200 200
4207314.013379999 7544008.28636 24.525 200 200 200
4207313.90938 7544008.4353600005 25.282 200 200 200
4207313.638379999 7544010.93936 26.043 200 200 200
4207314.18138 7544010.71036 26.0 200 200 200
4207316.19338 7544011.10736 28.36 200 200 200
4207316.77138 7544009.95936 27.808 200 200 200
4207316.33338 7544009.88036 27.11 200 200 200
4207316.52038 7544010.06236 27.994 200 200 200
4207316.12938 7544008.64436 24.654 200 200 200
4207316.18138 7544009.84836 26.717 200 200 200
4207316.251379999 7544009.81436 26.579 200 200 200
4207316.28138 7544009.2423600005 26.213 200 200 200
4207316.36638 7544008.98536 25.243000000000002 200 200 200
4207316.78838 7544009.794360001 26.861 200 200 200
4207316.5933799995 7544008.96236 25.207 200 200 200
4207316.15838 7544009.1683600005 25.567 200 200 200
4207316.825379999 7544009.34936 26.099 200 200 200
4207316.41538 7544008.76936 25.084 200 200 200
4207313.638379999 7544015.930360001 30.231 200 200 200
4207313.68238 7544016.06536 30.228 200 200 200
4207314.13638 7544015.41136 30.234 200 200 200
4207310.19138 7544016.67736 26.961 200 200 200
4207312.3263799995 7544016.69536 28.823 200 200 200
4207314.44638 7544013.09636 29.849 200 200 200
4207314.263379999 7544012.04736 28.897000000000002 200 200 200
4207311.71938 7544016.11136 27.452 200 200 200
4207310.90838 7544016.282360001 27.38 200 200 200
4207311.876379999 7544016.75336 28.705000000000002 200 200 200
4207311.05538 7544014.67636 27.078 200 200 200
4207313.11238 7544012.77536 28.696 200 200 200
4207315.75338 7544011.71836 28.938000000000002 200 200 200
4207315.01838 7544016.73336 29.724 200 200 200
4207312.48138 7544014.08436 26.973 200 200 200
4207313.0703799995 7544013.84236 29.62 200 200 200
4207313.80138 7544011.39236 28.34 200 200 200
4207312.39538 7544016.3333600005 28.807000000000002 200 200 200
4207312.46338 7544016.3333600005 28.807000000000002 200 200 200
4207314.23938 7544013.42636 30.029 200 200 200
4207312.82438 7544014.89536 29.212 200 200 200
4207310.89038 7544015.39336 27.3 200 200 200
4207315.94338 7544017.00336 29.659 200 200 200
4207311.29038 7544016.33536 27.444 200 200 200
4207312.79938 7544012.80436 28.528 200 200 200
4207314.30238 7544014.06836 30.115000000000002 200 200 200
4207312.439379999 7544016.629360001 28.838 200 200 200
4207314.81538 7544015.936360001 29.971 200 200 200
4207314.43038 7544015.743360001 30.113 200 200 200
4207313.69038 7544011.453360001 28.262 200 200 200
4207313.82338 7544014.92636 30.13 200 200 200
4207310.26238 7544015.34836 27.045 200 200 200
4207313.52038 7544016.09136 29.136 200 200 200
4207313.984379999 7544014.67636 30.099 200 200 200
4207312.979379999 7544014.62236 29.473 200 200 200
4207311.04538 7544015.71936 27.395 200 200 200
4207313.0363799995 7544011.48536 28.144000000000002 200 200 200
4207314.99838 7544012.4753600005 29.398 200 200 200
4207312.92538 7544013.95936 28.817 200 200 200
4207312.558379999 7544015.62836 28.749000000000002 200 200 200
4207312.99438 7544015.50136 29.705000000000002 200 200 200
4207315.47738 7544012.09736 29.169 200 200 200
4207315.43138 7544012.14336 29.167 200 200 200
4207314.75438 7544012.54236 29.103 200 200 200
4207314.90838 7544012.56236 29.344 200 200 200
4207313.354379999 7544014.68836 30.006 200 200 200
4207312.20938 7544013.66136 28.517 200 200 200
4207315.75038 7544013.720360001 29.941 200 200 200
4207315.4283799995 7544015.14736 29.981 200 200 200
4207314.29038 7544011.36436 28.825 200 200 200
4207312.22038 7544015.70936 28.656 200 200 200
4207312.49338 7544012.62636 27.999000000000002 200 200 200
4207312.541379999 7544012.01236 27.938000000000002 200 200 200
4207312.19138 7544012.99936 26.986 200 200 200
4207313.56338 7544013.43836 29.912 200 200 200
4207313.67138 7544014.23936 30.032 200 200 200
4207314.33438 7544011.47736 28.835 200 200 200
4207313.92038 7544012.50836 29.023 200 200 200
4207313.06138 7544014.99636 29.896 200 200 200
4207314.814379999 7544015.89436 30.022000000000002 200 200 200
4207312.59938 7544016.17636 28.824 200 200 200
4207311.90138 7544015.88236 27.408 200 200 200
4207313.06538 7544014.66436 29.701 200 200 200
4207313.16038 7544013.6913600005 29.7 200 200 200
4207312.89238 7544015.93836 28.933 200 200 200
4207315.564379999 7544014.85336 29.976 200 200 200
4207311.00038 7544015.73936 27.381 200 200 200
4207313.69738 7544012.39136 28.962 200 200 200
4207315.49338 7544016.39536 29.722 200 200 200
4207313.19438 7544015.77936 29.788 200 200 200
4207313.44738 7544012.59636 28.993000000000002 200 200 200
4207313.27738 7544013.16036 29.575 200 200 200
4207311.96338 7544016.50636 27.57 200 200 200
4207312.09038 7544014.75236 28.578 200 200 200
4207312.86738 7544014.94836 29.3 200 200 200
4207314.973379999 7544015.33636 30.1 200 200 200
4207311.7183799995 7544016.248360001 27.461 200 200 200
4207313.07138 7544013.55036 29.627 200 200 200
4207315.89138 7544011.59636 28.815 200 200 200
4207311.33438 7544016.447360001 27.429000000000002 200 200 200
4207314.24938 7544016.09936 30.052 200 200 200
4207314.23838 7544013.52236 30.078 200 200 200
4207310.325379999 7544016.26236 27.137 200 200 200
4207313.64038 7544012.00836 28.413 200 200 200
4207311.95438 7544015.06436 28.506 200 200 200
4207313.75838 7544014.78736 30.095 200 200 200
4207314.212379999 7544014.0663600005 30.115000000000002 200 200 200
4207314.70338 7544016.288360001 29.847 200 200 200
4207314.27338 7544016.49036 29.84 200 200 200
4207311.7523799995 7544014.75836 27.232 200 200 200
4207315.69138 7544017.61936 29.731 200 200 200
4207314.56638 7544017.311360001 29.618000000000002 200 200 200
4207310.61738 7544017.12836 26.927 200 200 200
4207314.740379999 7544018.74736 28.303 200 200 200
4207312.666379999 7544018.04836 27.016000000000002 200 200 200
4207314.02538 7544019.0833600005 27.72 200 200 200
4207312.50438 7544017.08636 28.878 200 200 200
4207312.61738 7544017.21936 28.85 200 200 200
4207315.12338 7544018.61636 28.359 200 200 200
4207314.41038 7544017.52336 29.46 200 200 200
4207315.08438 7544017.61136 29.664 200 200 200
4207314.89838 7544019.32036 28.1 200 200 200
4207313.791379999 7544018.21736 28.514 200 200 200
4207314.94238 7544018.57136 28.347 200 200 200
4207310.25838 7544016.87836 26.918 200 200 200
4207312.84538 7544018.44936 26.931 200 200 200
4207315.30738 7544017.510360001 29.808 200 200 200
4207314.80038 7544017.52036 29.107 200 200 200
4207314.44638 7544018.23936 28.479 200 200 200
4207310.9283799995 7544016.9353600005 27.326 200 200 200
4207311.83438 7544017.45236 26.95 200 200 200
4207311.90038 7544018.21336 26.843 200 200 200
4207315.46138 7544018.68436 28.321 200 200 200
4207315.501379999 7544019.282360001 28.459 200 200 200
4207313.85838 7544017.37636 28.763 200 200 200
4207313.29638 7544018.89736 26.834 200 200 200
4207314.6783799995 7544017.4243600005 29.629 200 200 200
4207313.496379999 7544017.15636 28.856 200 200 200
4207315.6613799995 7544018.96236 28.417 200 200 200
4207314.64838 7544018.24136 28.493000000000002 200 200 200
4207314.4683799995 7544017.839360001 28.59 200 200 200
4207315.10838 7544017.64336 29.486 200 200 200
4207314.138379999 7544018.99636 27.761 200 200 200
4207312.50438 7544017.75036 28.696 200 200 200
4207314.632379999 7544019.54036 27.75 200 200 200
4207315.13638 7544019.83636 27.188000000000002 200 200 200
4207315.26538 7544017.69036 29.524 200 200 200
4207311.92738 7544017.39436 28.22 200 200 200
4207312.14738 7544017.28936 27.172 200 200 200
4207309.21438 7544014.58536 26.589 200 200 200
4207309.66338 7544014.481360001 26.695 200 200 200
4207309.29938 7544015.84636 26.52 200 200 200
4207308.94338 7544014.87136 26.504 200 200 200
4207310.17938 7544014.38636 26.89 200 200 200
4207308.58538 7544014.92336 26.311 200 200 200
4207309.638379999 7544015.0263600005 26.707 200 200 200
4207310.17438 7544015.71736 26.845 200 200 200
4207309.706379999 7544014.98236 26.721 200 200 200
4207309.9453799995 7544012.6343600005 26.501 200 200 200
4207309.29938 7544016.089360001 26.438000000000002 200 200 200
4207309.4853799995 7544014.09036 26.628 200 200 200
4207308.56138 7544014.74636 26.379 200 200 200
4207309.93138 7544014.74036 26.804000000000002 200 200 200
4207310.16538 7544013.01336 26.709 200 200 200
4207310.15138 7544016.91536 26.536 200 200 200
4207312.47238 7544011.010360001 25.566000000000003 200 200 200
4207310.81038 7544012.25036 26.173000000000002 200 200 200
4207310.50538 7544012.17636 24.106 200 200 200
4207313.11338 7544011.1853600005 26.338 200 200 200
4207312.15638 7544011.64836 26.791 200 200 200
4207312.73138 7544013.69936 26.934 200 200 200
4207310.88738 7544012.822360001 26.819 200 200 200
4207312.8263799995 7544011.40036 25.9 200 200 200
4207311.2353799995 7544012.37736 26.337 200 200 200
4207312.94338 7544011.00236 25.733 200 200 200
4207310.98938 7544011.76936 24.956 200 200 200
4207312.84538 7544011.08036 26.162 200 200 200
4207314.20538 7544011.69636 25.583 200 200 200
4207310.592379999 7544010.97836 24.682000000000002 200 200 200
4207312.09438 7544011.1173600005 25.231 200 200 200
4207313.308379999 7544011.3103600005 26.755 200 200 200
4207311.62338 7544011.07636 25.027 200 200 200
4207310.40738 7544014.02236 26.875 200 200 200
4207312.60638 7544011.5663600005 26.897000000000002 200 200 200
4207311.75638 7544011.618360001 24.989 200 200 200
4207312.41438 7544013.856360001 26.941 200 200 200
4207310.46338 7544012.48836 26.647000000000002 200 200 200
4207315.63638 7544019.85236 25.630000000000003 200 200 200
4207314.95938 7544019.805360001 25.641000000000002 200 200 200
4207312.33238 7544019.24436 26.414 200 200 200
4207312.4683799995 7544019.328360001 26.324 200 200 200
4207312.53738 7544019.14936 26.341 200 200 200
4207314.80038 7544018.94836 24.532 200 200 200
4207312.23738 7544018.90836 26.752000000000002 200 200 200
4207315.83838 7544019.59036 25.727 200 200 200
4207310.371379999 7544016.96336 26.853 200 200 200
4207315.42638 7544018.94836 26.235 200 200 200
4207312.76138 7544019.08736 26.395 200 200 200
4207315.82338 7544019.81836 25.201 200 200 200
4207312.62238 7544018.98836 26.6 200 200 200
4207313.00538 7544018.48536 26.791 200 200 200
4207312.3773799995 7544019.35236 26.323 200 200 200
4207311.97438 7544019.22236 26.147 200 200 200
4207311.38638 7544017.92736 26.695 200 200 200
4207316.78138 7544012.36536 29.346 200 200 200
4207316.76438 7544013.46036 30.029 200 200 200
4207316.24138 7544014.322360001 30.094 200 200 200
4207316.84938 7544012.36536 29.347 200 200 200
4207316.19338 7544015.77336 29.830000000000002 200 200 200
4207316.41338 7544011.77936 28.535 200 200 200
4207316.24738 7544013.23036 30.02 200 200 200
4207316.6673799995 7544014.78336 30.186 200 200 200
4207316.93038 7544012.981360001 29.7 200 200 200
4207316.49238 7544013.84836 30.082 200 200 200
4207316.1953799995 7544016.61336 29.581 200 200 200
4207316.19338 7544016.95136 29.572 200 200 200
4207316.780379999 7544016.089360001 29.8 200 200 200
4207316.22838 7544011.69236 28.878 200 200 200
4207316.02038 7544011.96036 29.124000000000002 200 200 200
4207316.69138 7544016.83236 29.464000000000002 200 200 200
4207316.41838 7544015.64836 29.948 200 200 200
4207316.01038 7544011.38836 28.466 200 200 200
4207316.13438 7544019.4353600005 26.924 200 200 200
4207316.51838 7544019.12136 28.367 200 200 200
4207316.41938 7544017.10436 29.494 200 200 200
4207316.99438 7544018.25336 28.517 200 200 200
4207316.4513799995 7544019.21036 28.364 200 200 200
4207316.56638 7544017.95736 28.535 200 200 200
4207316.77338 7544019.40536 26.497 200 200 200
4207316.58938 7544019.29236 26.803 200 200 200
4207314.98238 7544015.322360001 21.288 200 200 200
4207314.72838 7544015.08136 21.698 200 200 200
4207314.89038 7544014.936360001 18.697000000000003 200 200 200
4207314.80638 7544014.95436 18.341 200 200 200
4207314.90938 7544015.0833600005 20.266 200 200 200
4207314.50538 7544014.87536 20.231 200 200 200
4207314.65438 7544014.78136 15.289 200 200 200
4207314.80038 7544015.01636 14.536 200 200 200
4207314.78338 7544014.2593600005 14.39 200 200 200
4207314.69238 7544015.10336 14.216000000000001 200 200 200
4207314.94038 7544014.680360001 15.724 200 200 200
4207314.29038 7544014.7083600005 14.097000000000001 200 200 200
4207314.56538 7544014.83736 16.581 200 200 200
4207314.87338 7544014.4753600005 15.716000000000001 200 200 200
4207314.52638 7544014.7423600005 16.228 200 200 200
4207314.9343799995 7544015.04236 15.994 200 200 200
4207315.12538 7544014.68836 14.088999999999999 200 200 200
4207314.52138 7544014.71636 16.494 200 200 200
4207314.8263799995 7544014.49936 17.173000000000002 200 200 200
4207314.51638 7544014.17936 12.818000000000001 200 200 200
4207316.11838 7544013.99136 11.498999999999999 200 200 200
4207314.0023799995 7544014.3843600005 11.136 200 200 200
4207314.9113799995 7544014.50336 12.026 200 200 200
4207316.104379999 7544015.42336 13.315000000000001 200 200 200
4207314.18138 7544014.86936 12.418 200 200 200
4207314.09938 7544014.60536 11.93 200 200 200
4207314.41238 7544014.99636 13.431000000000001 200 200 200
4207314.17338 7544014.464360001 13.012 200 200 200
4207314.024379999 7544014.82536 10.998999999999999 200 200 200
4207314.06238 7544014.7933600005 11.456 200 200 200
4207316.23138 7544014.02836 11.398 200 200 200
4207315.62538 7544014.63836 11.138000000000002 200 200 200
4207315.61338 7544015.02436 11.712 200 200 200
4207315.38738 7544014.77536 13.175 200 200 200
4207314.047379999 7544014.7993600005 10.949000000000002 200 200 200
4207315.51138 7544015.45536 12.309999999999999 200 200 200
4207315.28138 7544014.55336 11.506 200 200 200
4207314.07438 7544014.84336 12.088999999999999 200 200 200
4207314.36438 7544015.00636 13.57 200 200 200
4207314.53138 7544014.19336 11.854 200 200 200
4207314.27538 7544014.78136 13.588000000000001 200 200 200
4207314.922379999 7544014.49136 12.736 200 200 200
4207314.17438 7544014.74436 12.84 200 200 200
4207314.21938 7544014.37436 13.027000000000001 200 200 200
4207314.03738 7544015.22336 11.445 200 200 200
4207315.13738 7544016.75536 12.745000000000001 200 200 200
4207313.80738 7544015.97836 11.552 200 200 200
4207315.40038 7544018.328360001 11.452000000000002 200 200 200
4207313.60038 7544016.94336 12.91 200 200 200
4207313.51438 7544016.81436 11.276 200 200 200
4207314.50538 7544016.29836 11.573 200 200 200
4207314.35038 7544017.09636 12.517 200 200 200
4207315.78938 7544017.6173600005 11.294 200 200 200
4207315.90038 7544016.02936 13.261 200 200 200
4207315.00638 7544017.18236 12.416 200 200 200
4207313.82738 7544017.18436 11.370000000000001 200 200 200
4207315.18538 7544017.436360001 11.053999999999998 200 200 200
4207312.632379999 7544016.77836 11.437999999999999 200 200 200
4207315.70938 7544017.55736 13.413 200 200 200
4207313.93038 7544015.703360001 10.951 200 200 200
4207314.21938 7544017.90336 10.695 200 200 200
4207313.507379999 7544016.75736 11.696000000000002 200 200 200
4207316.50638 7544013.48236 11.349 200 200 200
4207316.57238 7544014.7933600005 12.484000000000002 200 200 200
4207316.5023799995 7544015.58036 12.399999999999999 200 200 200
4207316.78738 7544014.91536 11.696000000000002 200 200 200
4207316.39038 7544014.05036 11.372 200 200 200
4207316.33938 7544015.29236 12.786999999999999 200 200 200
4207316.89638 7544017.41636 11.292000000000002 200 200 200
4207316.90338 7544017.44036 13.587 200 200 200
4207316.78838 7544017.72436 10.878 200 200 200
4207316.61838 7544016.22436 13.399999999999999 200 200 200
4207314.57738 7544014.30936 10.443999999999999 200 200 200
4207315.001379999 7544014.396360001 10.672 200 200 200
4207314.21938 7544014.04836 10.309000000000001 200 200 200
4207314.10338 7544013.95536 10.564 200 200 200
4207314.331379999 7544014.05236 10.36 200 200 200
4207316.02338 7544013.81236 10.387 200 200 200
4207313.98738 7544014.22936 10.620000000000001 200 200 200
4207314.48838 7544014.12636 10.422 200 200 200
4207313.94038 7544014.748360001 10.582 200 200 200
4207315.34738 7544018.03636 10.609000000000002 200 200 200
4207314.92338 7544018.21336 10.286000000000001 200 200 200
4207314.96638 7544018.09436 10.492 200 200 200
4207315.25938 7544017.97936 10.457999999999998 200 200 200
4207316.56638 7544017.77036 10.61 200 200 200
4207316.501379999 7544017.82636 10.456 200 200 200
