4207302.24238 7544022.47136 29.984 200 200 200
4207301.85238 7544022.58836 30.334 200 200 200
4207302.10738 7544022.51336 29.944 200 200 200
4207300.38538 7544022.50136 30.456 200 200 200
4207302.2863799995 7544022.6343600005 30.031 200 200 200
4207301.05538 7544022.7993600005 30.743000000000002 200 200 200
4207301.200379999 7544026.862360001 33.205 200 200 200
4207301.29438 7544026.44536 33.077 200 200 200
4207299.13338 7544025.493360001 31.732 200 200 200
4207299.80538 7544027.72736 32.771 200 200 200
4207299.91438 7544024.80436 30.98 200 200 200
4207298.98738 7544026.27236 30.723 200 200 200
4207301.02138 7544027.58836 32.946 200 200 200
4207302.09938 7544025.77936 32.349000000000004 200 200 200
4207299.85738 7544026.78736 32.604 200 200 200
4207299.08038 7544026.41736 30.542 200 200 200
4207298.84038 7544025.29536 30.366 200 200 200
4207302.46038 7544025.69636 30.984 200 200 200
4207299.52838 7544024.75036 31.182000000000002 200 200 200
4207302.54038 7544026.82336 32.643 200 200 200
4207302.16538 7544026.12736 30.997 200 200 200
4207302.93238 7544027.01136 32.146 200 200 200
4207301.56338 7544024.31536 31.013 200 200 200
4207301.79538 7544028.15436 32.327 200 200 200
4207301.65738 7544023.71936 30.901 200 200 200
4207302.76538 7544025.464360001 30.306 200 200 200
4207301.31138 7544025.52536 32.313 200 200 200
4207302.86738 7544026.572360001 32.029 200 200 200
4207302.973379999 7544024.15436 30.34 200 200 200
4207302.2183799995 7544025.50536 32.027 200 200 200
4207298.95338 7544025.50736 31.629 200 200 200
4207301.74438 7544024.379360001 30.949 200 200 200
4207302.53938 7544026.89436 32.692 200 200 200
4207300.86638 7544026.59636 33.007 200 200 200
4207299.39338 7544027.07136 31.923000000000002 200 200 200
4207299.35338 7544026.18336 31.868000000000002 200 200 200
4207299.74438 7544024.470360001 30.492 200 200 200
4207300.4283799995 7544025.03036 31.256 200 200 200
4207298.98038 7544026.157360001 29.825 200 200 200
4207302.50638 7544025.62436 30.935000000000002 200 200 200
4207299.94738 7544023.73936 30.664 200 200 200
4207300.69238 7544026.18736 32.712 200 200 200
4207300.45438 7544027.97336 32.984 200 200 200
4207302.30438 7544028.38236 31.487000000000002 200 200 200
4207301.990379999 7544028.30936 31.411 200 200 200
4207300.098379999 7544027.17636 32.951 200 200 200
4207300.962379999 7544026.17536 32.815 200 200 200
4207302.00838 7544025.08036 31.212 200 200 200
4207299.16838 7544027.26836 30.408 200 200 200
4207302.6613799995 7544028.54136 30.318 200 200 200
4207298.68238 7544026.06436 31.538 200 200 200
4207299.46338 7544024.760360001 31.016000000000002 200 200 200
4207299.86238 7544028.402360001 31.854 200 200 200
4207301.14138 7544025.07436 31.778000000000002 200 200 200
4207300.2353799995 7544028.06336 29.823 200 200 200
4207299.92338 7544023.123360001 30.907 200 200 200
4207301.99338 7544027.18236 32.923 200 200 200
4207299.490379999 7544025.7993600005 31.878 200 200 200
4207301.24338 7544024.66736 31.193 200 200 200
4207299.95738 7544028.34936 32.896 200 200 200
4207300.55538 7544023.214360001 30.883 200 200 200
4207301.52338 7544023.62836 30.903000000000002 200 200 200
4207302.93238 7544026.83136 32.15 200 200 200
4207302.55538 7544025.40836 30.763 200 200 200
4207298.78338 7544025.9013600005 30.896 200 200 200
4207299.8263799995 7544024.79636 30.89 200 200 200
4207302.12238 7544025.77936 32.349000000000004 200 200 200
4207302.12938 7544028.03136 29.884 200 200 200
4207298.89038 7544025.265360001 31.432000000000002 200 200 200
4207302.50638 7544028.48636 30.192 200 200 200
4207299.32938 7544027.43136 31.622 200 200 200
4207301.132379999 7544028.48836 31.428 200 200 200
4207302.263379999 7544027.03936 30.214000000000002 200 200 200
4207298.7693799995 7544026.26236 30.316 200 200 200
4207299.723379999 7544026.67036 32.568 200 200 200
4207298.90738 7544025.66636 31.650000000000002 200 200 200
4207301.06738 7544023.669360001 31.178 200 200 200
4207301.450379999 7544027.34336 32.992 200 200 200
4207302.20238 7544025.65636 31.643 200 200 200
4207301.19038 7544024.92536 31.605 200 200 200
4207299.342379999 7544024.5833600005 30.221 200 200 200
4207300.02838 7544028.49436 32.715 200 200 200
4207302.1953799995 7544024.82636 30.851 200 200 200
4207299.32238 7544026.79736 32.195 200 200 200
4207299.3943799995 7544027.021360001 31.873 200 200 200
4207302.83538 7544026.20536 29.946 200 200 200
4207299.32338 7544024.87136 31.304000000000002 200 200 200
4207299.75338 7544026.01636 32.306 200 200 200
4207302.37938 7544027.03936 32.814 200 200 200
4207299.28538 7544026.77936 31.676000000000002 200 200 200
4207300.01538 7544024.95136 31.687 200 200 200
4207301.848379999 7544023.16536 30.472 200 200 200
4207302.26238 7544027.83836 31.462 200 200 200
4207302.314379999 7544026.71536 32.72 200 200 200
4207301.60538 7544024.55036 31.121000000000002 200 200 200
4207300.86138 7544024.50236 31.119 200 200 200
4207302.359379999 7544024.4923600005 30.632 200 200 200
4207300.189379999 7544024.18836 30.895 200 200 200
4207299.18838 7544026.54836 30.755 200 200 200
4207301.3093799995 7544025.62436 32.425 200 200 200
4207298.8093799995 7544025.754360001 30.747 200 200 200
4207302.58838 7544026.544360001 32.561 200 200 200
4207299.95938 7544028.10436 32.953 200 200 200
4207300.20838 7544028.23536 31.442 200 200 200
4207302.0763799995 7544023.02036 30.337 200 200 200
4207302.34738 7544023.03936 30.288 200 200 200
4207299.439379999 7544027.80036 31.702 200 200 200
4207302.42338 7544024.85836 30.674 200 200 200
4207302.39238 7544025.93436 32.283 200 200 200
4207301.2013799995 7544024.23236 31.127 200 200 200
4207302.71638 7544027.8503600005 31.299 200 200 200
4207301.26738 7544024.57336 31.144000000000002 200 200 200
4207299.50438 7544027.2083600005 31.945 200 200 200
4207298.68738 7544025.726360001 31.255 200 200 200
4207300.27238 7544028.25536 30.262 200 200 200
4207300.42638 7544028.69436 30.366 200 200 200
4207302.59038 7544028.95736 30.422 200 200 200
4207301.86838 7544028.80236 30.511 200 200 200
4207299.61138 7544022.47336 26.673000000000002 200 200 200
4207299.24938 7544022.4353600005 26.787 200 200 200
4207299.26438 7544022.515360001 27.228 200 200 200
4207299.88138 7544022.390360001 26.766000000000002 200 200 200
4207299.814379999 7544022.453360001 26.713 200 200 200
4207295.672379999 7544022.11536 24.924 200 200 200
4207296.86238 7544021.12836 24.105 200 200 200
4207298.31238 7544022.14136 24.836 200 200 200
4207297.888379999 7544021.94336 24.623 200 200 200
4207296.86838 7544021.95736 24.871000000000002 200 200 200
4207296.89338 7544021.81736 24.824 200 200 200
4207296.83838 7544021.17636 24.142 200 200 200
4207295.4453799995 7544022.25136 24.932000000000002 200 200 200
4207295.69638 7544020.868360001 23.738 200 200 200
4207294.609379999 7544021.37036 23.859 200 200 200
4207295.33838 7544022.09036 24.619 200 200 200
4207295.47238 7544021.919360001 24.738 200 200 200
4207297.723379999 7544020.75636 23.941000000000003 200 200 200
4207298.223379999 7544021.73836 23.451 200 200 200
4207297.73138 7544021.84936 24.599 200 200 200
4207297.11138 7544021.05636 24.045 200 200 200
4207297.04438 7544021.05436 24.019 200 200 200
4207294.52138 7544021.339360001 23.745 200 200 200
4207295.36738 7544021.68436 24.35 200 200 200
4207295.05238 7544021.87736 24.229 200 200 200
4207295.40638 7544021.93336 24.623 200 200 200
4207297.42638 7544021.17636 24.107 200 200 200
4207299.98638 7544022.10236 24.542 200 200 200
4207298.98338 7544022.2593600005 25.128 200 200 200
4207299.75438 7544022.37636 24.876 200 200 200
4207298.88438 7544021.75236 24.456 200 200 200
4207298.848379999 7544022.10836 23.8 200 200 200
4207298.47738 7544022.94036 26.935000000000002 200 200 200
4207298.33238 7544024.46836 27.087 200 200 200
4207298.62938 7544023.32436 27.18 200 200 200
4207297.45338 7544025.44036 26.830000000000002 200 200 200
4207297.81138 7544025.873360001 26.846 200 200 200
4207298.58038 7544025.197360001 28.275 200 200 200
4207297.6843799995 7544024.32536 26.732 200 200 200
4207298.54438 7544026.10336 28.886 200 200 200
4207298.48038 7544026.15536 27.236 200 200 200
4207298.44038 7544025.845360001 27.04 200 200 200
4207297.40738 7544025.35436 26.882 200 200 200
4207298.189379999 7544026.99036 28.355 200 200 200
4207297.882379999 7544024.52836 27.007 200 200 200
4207297.42938 7544024.95936 27.032 200 200 200
4207298.39538 7544025.99636 28.381 200 200 200
4207298.09738 7544023.03336 26.702 200 200 200
4207298.37938 7544023.79836 27.205000000000002 200 200 200
4207298.01638 7544024.981360001 26.996000000000002 200 200 200
4207302.007379999 7544027.37536 27.884 200 200 200
4207300.1673799995 7544027.31736 28.7 200 200 200
4207301.63138 7544026.33636 29.074 200 200 200
4207302.01138 7544023.93836 28.501 200 200 200
4207299.2353799995 7544028.07436 28.866 200 200 200
4207302.27838 7544027.59436 27.778 200 200 200
4207298.67138 7544025.17536 28.301000000000002 200 200 200
4207301.86238 7544022.9183600005 29.641000000000002 200 200 200
4207300.05038 7544022.62236 27.395 200 200 200
4207300.42938 7544022.95636 27.604 200 200 200
4207299.86438 7544028.33536 28.990000000000002 200 200 200
4207302.717379999 7544024.33136 28.001 200 200 200
4207298.69838 7544025.06236 28.0 200 200 200
4207299.89738 7544024.19036 28.065 200 200 200
4207299.7013799995 7544026.101360001 28.512 200 200 200
4207302.91038 7544023.58836 27.462 200 200 200
4207302.31238 7544028.027360001 26.956 200 200 200
4207302.24838 7544023.55636 27.941000000000003 200 200 200
4207301.60838 7544028.01736 28.601 200 200 200
4207299.15638 7544024.4583600005 27.776 200 200 200
4207298.77538 7544025.09036 27.479 200 200 200
4207298.88538 7544024.74636 27.704 200 200 200
4207301.96138 7544026.135360001 28.231 200 200 200
4207301.76638 7544026.97836 28.881 200 200 200
4207299.842379999 7544027.953360001 29.037 200 200 200
4207300.83938 7544026.680360001 27.743000000000002 200 200 200
4207299.15038 7544026.11936 29.041 200 200 200
4207300.274379999 7544027.2083600005 29.033 200 200 200
4207302.689379999 7544024.80436 26.822 200 200 200
4207302.38638 7544024.38136 28.923000000000002 200 200 200
4207301.74438 7544023.657360001 28.405 200 200 200
4207300.31038 7544028.44836 29.243000000000002 200 200 200
4207302.615379999 7544026.98636 26.654 200 200 200
4207300.35838 7544027.54836 29.304000000000002 200 200 200
4207302.07338 7544028.24736 27.748 200 200 200
4207302.07338 7544023.46536 27.664 200 200 200
4207299.09138 7544025.52936 27.293 200 200 200
4207298.84038 7544024.76836 27.716 200 200 200
4207299.4113799995 7544027.101360001 29.424 200 200 200
4207299.888379999 7544024.5833600005 28.461000000000002 200 200 200
4207300.41238 7544027.50836 28.798000000000002 200 200 200
4207302.43538 7544023.50236 27.55 200 200 200
4207300.32438 7544027.32136 28.726 200 200 200
4207298.956379999 7544024.623360001 27.593 200 200 200
4207298.98038 7544026.40336 29.781 200 200 200
4207298.98238 7544023.91636 27.509 200 200 200
4207300.57138 7544024.23236 28.271 200 200 200
4207301.7353799995 7544023.23836 27.68 200 200 200
4207302.62438 7544023.30436 29.89 200 200 200
4207300.27138 7544025.322360001 28.344 200 200 200
4207301.71438 7544027.98936 29.084 200 200 200
4207300.74238 7544026.37836 28.231 200 200 200
4207302.46138 7544023.15536 27.445 200 200 200
4207302.18138 7544023.510360001 27.955000000000002 200 200 200
4207299.4113799995 7544023.83036 27.552 200 200 200
4207300.08938 7544024.57336 28.628 200 200 200
4207298.63638 7544025.32636 27.625 200 200 200
4207299.83538 7544027.26436 26.886 200 200 200
4207300.27038 7544024.65936 28.55 200 200 200
4207302.32338 7544027.77436 27.774 200 200 200
4207299.56338 7544024.18836 27.785 200 200 200
4207302.41538 7544025.92936 26.742 200 200 200
4207302.56538 7544028.07436 26.69 200 200 200
4207299.12438 7544026.42536 29.211000000000002 200 200 200
4207302.73738 7544023.52236 29.783 200 200 200
4207300.33338 7544028.339360001 29.309 200 200 200
4207301.83338 7544022.96036 27.294 200 200 200
4207300.31138 7544025.652360001 28.526 200 200 200
4207299.77838 7544022.69236 27.442 200 200 200
4207299.66938 7544026.87836 28.885 200 200 200
4207300.14638 7544024.05736 28.095 200 200 200
4207302.0703799995 7544023.43336 27.817 200 200 200
4207299.155379999 7544024.48436 27.826 200 200 200
4207299.99538 7544027.11336 29.541 200 200 200
4207298.65738 7544022.70236 27.056 200 200 200
4207299.28838 7544028.25536 28.292 200 200 200
4207300.24538 7544025.00736 28.656 200 200 200
4207302.422379999 7544028.265360001 27.103 200 200 200
4207300.24838 7544027.86636 29.054000000000002 200 200 200
4207299.40638 7544028.5263600005 26.536 200 200 200
4207301.98638 7544028.49636 27.463 200 200 200
4207299.40438 7544028.8673600005 27.998 200 200 200
4207301.06738 7544028.84136 27.018 200 200 200
4207300.48638 7544028.87136 29.437 200 200 200
4207301.99538 7544028.67336 28.283 200 200 200
4207300.87838 7544028.85536 27.499000000000002 200 200 200
4207302.08838 7544028.69436 29.424 200 200 200
4207294.42038 7544022.55936 24.019 200 200 200
4207294.39538 7544023.260360001 24.002000000000002 200 200 200
4207295.666379999 7544024.61536 25.928 200 200 200
4207298.13738 7544023.10736 25.623 200 200 200
4207296.06538 7544025.24936 26.206 200 200 200
4207297.72138 7544023.28436 26.162 200 200 200
4207297.35838 7544022.63236 25.073 200 200 200
4207295.79038 7544023.96736 25.462 200 200 200
4207295.57138 7544025.169360001 26.078 200 200 200
4207297.28538 7544023.98336 26.446 200 200 200
4207297.12238 7544023.12136 25.566000000000003 200 200 200
4207297.15938 7544023.56436 26.0 200 200 200
4207295.14738 7544025.14436 25.76 200 200 200
4207294.71038 7544023.10936 24.096 200 200 200
4207298.35038 7544022.68836 25.152 200 200 200
4207296.70838 7544023.78336 25.928 200 200 200
4207297.26438 7544023.97736 26.37 200 200 200
4207295.51238 7544022.38636 24.917 200 200 200
4207296.65838 7544022.6343600005 25.132 200 200 200
4207296.43038 7544022.88836 25.214 200 200 200
4207296.06838 7544023.447360001 25.16 200 200 200
4207295.712379999 7544023.089360001 24.926000000000002 200 200 200
4207294.48738 7544022.89836 24.011 200 200 200
4207295.97738 7544025.79136 25.913 200 200 200
4207297.19238 7544024.32736 26.501 200 200 200
4207295.22438 7544023.35536 24.308 200 200 200
4207296.78238 7544023.49036 25.657 200 200 200
4207295.888379999 7544025.70236 25.927 200 200 200
4207295.35738 7544024.80836 25.516000000000002 200 200 200
4207296.66938 7544023.48636 25.631 200 200 200
4207297.17338 7544022.92036 25.305 200 200 200
4207296.638379999 7544023.85836 26.028 200 200 200
4207297.30738 7544024.09636 26.444000000000003 200 200 200
4207297.087379999 7544022.7253600005 25.12 200 200 200
4207296.24738 7544024.78036 26.256 200 200 200
4207297.86938 7544023.09336 25.457 200 200 200
4207297.55438 7544026.34036 25.895 200 200 200
4207298.08338 7544022.42336 24.98 200 200 200
4207295.59438 7544025.19336 26.078 200 200 200
4207298.23338 7544022.86136 25.35 200 200 200
4207300.4513799995 7544022.94836 24.904 200 200 200
4207299.92638 7544022.86136 25.258000000000003 200 200 200
4207300.42138 7544023.186360001 23.908 200 200 200
4207300.16238 7544022.652360001 26.051000000000002 200 200 200
4207302.87438 7544025.33836 26.404 200 200 200
4207299.27638 7544022.33436 23.784 200 200 200
4207301.84538 7544024.38936 24.748 200 200 200
4207299.280379999 7544026.65436 23.741 200 200 200
4207299.67038 7544022.67636 25.819000000000003 200 200 200
4207299.98238 7544022.63036 26.075 200 200 200
4207300.02138 7544022.640360001 25.048000000000002 200 200 200
4207300.36938 7544022.94236 25.702 200 200 200
4207300.01138 7544022.90836 25.587 200 200 200
4207300.17038 7544023.52436 25.344 200 200 200
4207300.68538 7544023.902360001 24.07 200 200 200
4207300.08838 7544022.731360001 25.046 200 200 200
4207300.36738 7544022.79736 25.883000000000003 200 200 200
4207302.01038 7544024.48636 25.673000000000002 200 200 200
4207300.58838 7544023.64736 24.595 200 200 200
4207299.23138 7544027.81836 26.463 200 200 200
4207300.08538 7544022.87836 25.195 200 200 200
4207301.47138 7544024.31536 25.547 200 200 200
4207299.35038 7544026.74536 26.338 200 200 200
4207300.15338 7544022.37036 23.914 200 200 200
4207298.92138 7544026.6743600005 20.86 200 200 200
4207301.48138 7544025.94436 20.384 200 200 200
4207300.49238 7544027.95536 22.396 200 200 200
4207299.02538 7544026.515360001 21.435000000000002 200 200 200
4207301.42138 7544027.52236 20.877000000000002 200 200 200
4207301.08238 7544026.79536 21.134999999999998 200 200 200
4207299.91338 7544027.743360001 22.018 200 200 200
4207299.74738 7544026.78136 21.331 200 200 200
4207299.31138 7544027.79636 20.162 200 200 200
4207299.83638 7544026.82736 22.763 200 200 200
4207300.1613799995 7544027.38936 20.697000000000003 200 200 200
4207300.1953799995 7544027.59836 22.771 200 200 200
4207298.96338 7544026.48936 21.093 200 200 200
4207300.22838 7544027.87836 22.016 200 200 200
4207299.67638 7544027.663360001 21.320999999999998 200 200 200
4207299.3773799995 7544027.75536 21.622 200 200 200
4207299.12838 7544026.45736 20.676000000000002 200 200 200
4207301.24138 7544026.74536 21.073 200 200 200
4207299.88638 7544027.34136 20.963 200 200 200
4207300.96938 7544027.52236 20.887999999999998 200 200 200
4207300.89338 7544025.88736 20.535 200 200 200
4207299.43638 7544026.95236 22.352 200 200 200
4207299.34638 7544027.17636 20.887999999999998 200 200 200
4207300.43738 7544027.29236 23.173000000000002 200 200 200
4207301.33638 7544026.90036 20.728 200 200 200
4207300.2523799995 7544027.055360001 20.743000000000002 200 200 200
4207299.19938 7544027.5263600005 20.181 200 200 200
4207300.888379999 7544027.89836 21.639000000000003 200 200 200
4207300.70838 7544027.38336 23.16 200 200 200
4207300.42638 7544027.6173600005 20.997 200 200 200
4207301.31738 7544026.01836 20.749000000000002 200 200 200
4207299.19638 7544026.805360001 21.948999999999998 200 200 200
4207300.41238 7544028.555360001 20.262999999999998 200 200 200
4207299.86138 7544028.40036 20.898 200 200 200
4207302.1443799995 7544028.16636 20.675 200 200 200
4207302.75338 7544028.78636 20.486 200 200 200
4207301.17038 7544028.527360001 22.157 200 200 200
4207300.67138 7544028.782360001 22.262999999999998 200 200 200
4207301.81138 7544028.89336 20.148 200 200 200
4207299.76238 7544028.220360001 21.486 200 200 200
4207300.59938 7544028.58736 21.215 200 200 200
4207302.5763799995 7544028.39436 20.405 200 200 200
4207300.61438 7544028.89136 20.192999999999998 200 200 200
4207301.64238 7544028.14436 21.003 200 200 200
4207299.87338 7544028.2253600005 21.549 200 200 200
4207300.56138 7544028.48836 20.823999999999998 200 200 200
4207298.32938 7544027.43136 19.583 200 200 200
4207298.69638 7544024.79836 17.164 200 200 200
4207297.638379999 7544026.59636 17.939 200 200 200
4207298.76038 7544025.39236 17.239 200 200 200
4207298.42338 7544026.4013600005 16.844 200 200 200
4207298.28838 7544025.80336 17.023 200 200 200
4207297.587379999 7544027.288360001 18.099 200 200 200
4207298.59938 7544027.015360001 19.759 200 200 200
4207297.49738 7544027.572360001 17.977 200 200 200
4207298.5593799995 7544026.33036 18.229 200 200 200
4207297.2523799995 7544026.27436 18.16 200 200 200
4207296.9453799995 7544028.69036 16.958 200 200 200
4207297.49238 7544028.46036 19.490000000000002 200 200 200
4207297.297379999 7544028.97736 17.434 200 200 200
4207298.06938 7544028.69036 17.192 200 200 200
4207297.03938 7544028.56536 16.809 200 200 200
4207297.30138 7544028.78036 17.236 200 200 200
4207301.87538 7544025.30336 18.525 200 200 200
4207302.45338 7544026.69236 20.041 200 200 200
4207298.83038 7544026.59436 18.134999999999998 200 200 200
4207299.92338 7544025.08636 19.332 200 200 200
4207301.13038 7544024.24436 17.482 200 200 200
4207302.21538 7544026.203360001 19.583 200 200 200
4207299.19338 7544024.379360001 17.266 200 200 200
4207300.77038 7544025.561360001 19.845 200 200 200
4207299.98238 7544025.46036 19.753999999999998 200 200 200
4207300.700379999 7544023.99936 18.982 200 200 200
4207301.51438 7544024.97336 18.658 200 200 200
4207302.58638 7544026.04836 19.043 200 200 200
4207301.7693799995 7544023.45936 17.239 200 200 200
4207300.98938 7544024.17636 19.195 200 200 200
4207301.825379999 7544024.55236 17.605 200 200 200
4207299.36438 7544024.71036 17.741 200 200 200
4207302.75438 7544025.99636 18.386000000000003 200 200 200
4207301.97838 7544025.28736 17.740000000000002 200 200 200
4207299.01138 7544025.13836 17.145 200 200 200
4207299.73038 7544026.40536 19.717 200 200 200
4207298.77238 7544026.50136 18.948999999999998 200 200 200
4207299.371379999 7544025.82336 18.373 200 200 200
4207299.2353799995 7544026.55436 19.622 200 200 200
4207301.64838 7544025.92536 19.814999999999998 200 200 200
4207302.38638 7544025.7423600005 18.91 200 200 200
4207302.66338 7544025.91536 18.502000000000002 200 200 200
4207301.57838 7544025.1853600005 18.768 200 200 200
4207299.365379999 7544025.03636 17.567999999999998 200 200 200
4207301.962379999 7544025.976360001 19.904 200 200 200
4207298.962379999 7544023.99936 17.642 200 200 200
4207302.40438 7544027.75536 20.04 200 200 200
4207301.07238 7544025.87736 19.242 200 200 200
4207301.67538 7544025.0663600005 18.403 200 200 200
4207301.64838 7544025.13236 18.655 200 200 200
4207302.609379999 7544026.86036 18.732 200 200 200
4207300.36338 7544025.652360001 19.891 200 200 200
4207302.04038 7544025.17936 18.098 200 200 200
4207298.84438 7544027.05336 19.937 200 200 200
4207300.91538 7544025.82536 19.179000000000002 200 200 200
4207301.56338 7544025.72436 19.578000000000003 200 200 200
4207302.5423799995 7544027.18436 19.979 200 200 200
4207300.609379999 7544024.74036 17.48 200 200 200
4207302.91538 7544024.214360001 17.277 200 200 200
4207299.66438 7544026.62236 19.584 200 200 200
4207302.77638 7544025.760360001 18.531 200 200 200
4207301.48738 7544024.45636 19.012999999999998 200 200 200
4207302.07738 7544026.038360001 19.802 200 200 200
4207302.90938 7544025.907360001 17.222 200 200 200
4207302.5933799995 7544025.152360001 17.43 200 200 200
4207302.50338 7544025.01836 17.47 200 200 200
4207299.837379999 7544023.30036 18.184 200 200 200
4207302.84638 7544026.51936 19.553 200 200 200
4207299.729379999 7544025.10836 18.759999999999998 200 200 200
4207302.530379999 7544027.55836 19.259 200 200 200
4207300.17138 7544025.50736 19.209 200 200 200
4207302.66438 7544025.998360001 18.398 200 200 200
4207299.13638 7544026.095360001 17.528 200 200 200
4207300.19238 7544023.65936 18.43 200 200 200
4207300.26038 7544028.69836 19.79 200 200 200
4207302.69838 7544028.90536 18.250999999999998 200 200 200
4207302.5763799995 7544027.82036 19.139000000000003 200 200 200
4207300.12338 7544028.75036 19.877000000000002 200 200 200
4207298.73038 7544021.13636 10.585 200 200 200
4207297.70838 7544025.92736 16.611 200 200 200
4207297.59638 7544024.81436 16.841 200 200 200
4207295.3773799995 7544026.9583600005 14.012 200 200 200
4207298.19038 7544023.78936 15.297 200 200 200
4207298.52838 7544023.129360001 14.073 200 200 200
4207298.16438 7544024.51436 15.304 200 200 200
4207296.757379999 7544025.01636 14.296 200 200 200
4207296.42038 7544026.31836 13.881 200 200 200
4207297.52138 7544025.59136 14.349 200 200 200
4207297.712379999 7544023.169360001 14.334 200 200 200
4207297.80138 7544025.40436 15.141 200 200 200
4207298.1443799995 7544023.856360001 15.283 200 200 200
4207298.666379999 7544023.953360001 16.5 200 200 200
4207297.69038 7544027.07936 16.012 200 200 200
4207296.274379999 7544026.71936 14.39 200 200 200
4207297.632379999 7544026.41736 14.215 200 200 200
4207298.36738 7544024.13636 16.811 200 200 200
4207297.50638 7544024.69936 16.831 200 200 200
4207296.83938 7544026.67236 14.318999999999999 200 200 200
4207296.27138 7544027.04736 14.522 200 200 200
4207295.905379999 7544028.69636 15.671 200 200 200
4207295.7923799995 7544027.72936 14.591000000000001 200 200 200
4207297.38938 7544028.04736 14.807 200 200 200
4207296.51238 7544028.22336 15.952 200 200 200
4207295.70238 7544028.85536 15.679 200 200 200
4207298.121379999 7544027.53436 15.724 200 200 200
4207297.12938 7544027.70736 15.664 200 200 200
4207297.5533799995 7544027.6853600005 15.958 200 200 200
4207295.86638 7544028.12036 14.088000000000001 200 200 200
4207295.87238 7544028.97136 16.259999999999998 200 200 200
4207295.87338 7544028.822360001 13.524999999999999 200 200 200
4207301.79538 7544022.87136 14.375 200 200 200
4207300.36938 7544023.46336 15.925 200 200 200
4207302.03738 7544024.74036 15.687 200 200 200
4207301.39338 7544024.2423600005 15.138 200 200 200
4207300.86838 7544024.24936 15.541 200 200 200
4207302.23638 7544024.69336 15.93 200 200 200
4207302.16538 7544023.47736 13.703 200 200 200
4207301.081379999 7544022.10836 14.187000000000001 200 200 200
4207299.1783799995 7544024.02936 16.843 200 200 200
4207301.88138 7544023.14136 14.622 200 200 200
4207299.25638 7544023.72136 14.949 200 200 200
4207302.87038 7544025.04236 15.735 200 200 200
4207299.99338 7544024.39736 16.598 200 200 200
4207299.1443799995 7544023.58236 16.347 200 200 200
4207300.45838 7544023.58236 15.986 200 200 200
4207299.087379999 7544023.28636 15.758000000000001 200 200 200
4207301.39038 7544024.589360001 15.243 200 200 200
4207300.45538 7544023.17736 14.868 200 200 200
4207302.04938 7544023.29236 13.96 200 200 200
4207302.55538 7544024.54636 15.783 200 200 200
4207299.001379999 7544023.135360001 14.126000000000001 200 200 200
4207300.58538 7544023.80036 15.018 200 200 200
4207299.706379999 7544023.72336 16.397 200 200 200
4207299.11438 7544023.481360001 16.793 200 200 200
4207301.46438 7544023.9243600005 15.121 200 200 200
4207300.23738 7544024.6173600005 16.809 200 200 200
4207300.48738 7544024.56336 16.685000000000002 200 200 200
4207300.77338 7544022.6343600005 14.870000000000001 200 200 200
4207300.90638 7544023.94936 16.056 200 200 200
4207300.27738 7544023.38336 16.079 200 200 200
4207300.513379999 7544023.71136 15.337 200 200 200
4207300.78938 7544023.95536 14.977 200 200 200
4207298.97838 7544023.862360001 16.77 200 200 200
4207300.77238 7544022.930360001 14.888 200 200 200
4207299.996379999 7544024.027360001 16.505000000000003 200 200 200
4207298.82438 7544023.612360001 11.006 200 200 200
4207295.27938 7544027.00336 11.715 200 200 200
4207295.30138 7544026.73536 13.193000000000001 200 200 200
4207297.46338 7544023.93436 11.422 200 200 200
4207297.49838 7544024.623360001 11.837 200 200 200
4207295.29038 7544026.81936 11.085999999999999 200 200 200
4207298.56838 7544024.20436 11.344999999999999 200 200 200
4207295.66538 7544026.28436 11.761 200 200 200
4207298.496379999 7544022.81336 10.644000000000002 200 200 200
4207295.45838 7544026.41136 11.947 200 200 200
4207298.54438 7544022.0663600005 10.637 200 200 200
4207298.780379999 7544023.82636 12.294 200 200 200
4207295.81238 7544026.33636 12.407 200 200 200
4207295.331379999 7544026.72336 11.317 200 200 200
4207298.04838 7544024.470360001 11.298000000000002 200 200 200
4207297.77338 7544023.62436 13.207 200 200 200
4207298.58438 7544022.88836 10.718 200 200 200
4207298.7863799995 7544022.78136 10.798000000000002 200 200 200
4207294.757379999 7544027.63736 11.760000000000002 200 200 200
4207293.882379999 7544028.83036 11.129999999999999 200 200 200
4207294.45238 7544028.64536 12.190000000000001 200 200 200
4207294.50938 7544027.91536 11.562000000000001 200 200 200
4207293.13938 7544027.92936 11.225000000000001 200 200 200
4207295.155379999 7544028.48836 13.327000000000002 200 200 200
4207301.01438 7544021.77836 11.456 200 200 200
4207299.60738 7544023.29836 11.562999999999999 200 200 200
4207302.54938 7544023.19236 12.379999999999999 200 200 200
4207299.13138 7544023.27436 13.02 200 200 200
4207299.89338 7544022.8843600005 13.490000000000002 200 200 200
4207301.18238 7544021.39836 10.921 200 200 200
4207302.359379999 7544022.81936 11.678 200 200 200
4207302.89038 7544022.85336 12.352 200 200 200
4207302.28238 7544023.68136 13.431999999999999 200 200 200
4207302.97838 7544023.13136 10.989 200 200 200
4207300.899379999 7544021.80936 11.568999999999999 200 200 200
4207299.984379999 7544023.061360001 11.989999999999998 200 200 200
4207299.98338 7544023.37536 11.956 200 200 200
4207300.12938 7544022.33036 11.603000000000002 200 200 200
4207302.45738 7544022.76336 11.248999999999999 200 200 200
4207299.172379999 7544023.765360001 13.198 200 200 200
4207301.172379999 7544021.88736 11.391000000000002 200 200 200
4207302.848379999 7544022.06236 10.939 200 200 200
4207302.871379999 7544024.29136 13.09 200 200 200
4207302.32238 7544022.42736 11.282 200 200 200
4207300.2523799995 7544021.85936 11.082 200 200 200
4207300.797379999 7544022.75136 12.04 200 200 200
4207300.05138 7544022.90636 12.044 200 200 200
4207302.68738 7544022.58636 11.001000000000001 200 200 200
4207299.825379999 7544023.72936 11.858 200 200 200
4207302.40338 7544023.2423600005 13.024999999999999 200 200 200
4207301.52038 7544022.81336 11.928 200 200 200
4207299.12338 7544023.40536 13.524000000000001 200 200 200
4207301.172379999 7544023.345360001 12.369 200 200 200
4207299.8263799995 7544024.856360001 11.513000000000002 200 200 200
4207299.6273799995 7544021.89536 10.698 200 200 200
4207301.85138 7544023.14136 12.327000000000002 200 200 200
4207299.42138 7544024.0493600005 11.633 200 200 200
4207302.8033799995 7544024.339360001 13.126999999999999 200 200 200
4207299.80238 7544022.18736 10.957999999999998 200 200 200
4207302.68538 7544023.08136 12.396 200 200 200
4207302.65738 7544023.2423600005 11.289000000000001 200 200 200
4207301.14038 7544022.09036 11.943999999999999 200 200 200
