4207308.04838 7543984.34336 27.392 200 200 200
4207305.6103799995 7543984.78636 25.961 100 100 100
4207307.50938 7543986.828360001 26.517 200 200 200
4207305.25438 7543983.67736 25.974 100 100 100
4207304.916379999 7543982.612360001 26.265 100 100 100
4207306.46538 7543984.28536 27.601 200 200 200
4207306.94138 7543986.98536 26.814 200 200 200
4207306.35838 7543983.40336 24.744 200 200 200
4207307.42638 7543982.38836 27.298000000000002 200 200 200
4207305.64638 7543983.5263600005 26.905 100 100 100
4207307.70538 7543986.53436 27.083000000000002 200 200 200
4207306.10638 7543984.58736 27.427 200 200 200
4207305.58438 7543984.58136 26.232 100 100 100
4207306.62338 7543987.01336 26.901 200 200 200
4207305.57938 7543985.07036 26.398 100 100 100
4207305.51238 7543982.9583600005 26.893 100 100 100
4207307.35738 7543987.07136 26.142 200 200 200
4207308.17038 7543982.39536 27.378 200 200 200
4207307.780379999 7543984.92736 27.072 200 200 200
4207308.19038 7543986.39736 26.455 200 200 200
4207307.24338 7543982.976360001 27.308 200 200 200
4207307.66538 7543986.9583600005 25.272 200 200 200
4207307.87338 7543987.44036 24.779 200 200 200
4207306.172379999 7543984.28136 27.562 200 200 200
4207309.37538 7543985.32036 27.388 200 200 200
4207306.712379999 7543986.66636 27.062 200 200 200
4207305.40438 7543982.58436 26.75 100 100 100
4207306.26138 7543985.3103600005 25.977 200 200 200
4207308.42438 7543985.97236 27.38 200 200 200
4207306.240379999 7543984.70236 27.45 200 200 200
4207308.05538 7543982.71536 27.407 200 200 200
4207306.865379999 7543984.947360001 25.064 200 200 200
4207306.984379999 7543986.65836 26.962 200 200 200
4207306.3093799995 7543985.368360001 25.836 200 200 200
4207306.23838 7543986.08536 27.2 200 200 200
4207307.81038 7543987.09136 24.66 200 200 200
4207305.84538 7543983.743360001 27.066 100 100 100
4207306.46638 7543984.03536 27.595 200 200 200
4207313.57738 7543978.90836 27.353 200 200 200
4207312.06838 7543978.47336 27.356 200 200 200
4207311.29838 7543979.15336 25.978 200 200 200
4207310.70838 7543978.01636 26.51 200 200 200
4207312.30538 7543977.26936 25.561 200 200 200
4207315.501379999 7543978.845360001 25.577 200 200 200
4207315.24838 7543979.86036 26.983 200 200 200
4207310.72738 7543978.76336 26.504 200 200 200
4207315.007379999 7543978.21336 25.628 200 200 200
4207314.10838 7543977.70436 25.547 200 200 200
4207313.2013799995 7543978.33836 27.035 200 200 200
4207312.19038 7543977.515360001 26.974 200 200 200
4207311.21938 7543979.1853600005 26.674 200 200 200
4207315.74138 7543977.2253600005 25.123 200 200 200
4207314.55138 7543979.157360001 26.997 200 200 200
4207312.922379999 7543977.32336 25.068 200 200 200
4207315.933379999 7543978.50136 25.511 200 200 200
4207311.422379999 7543976.1743600005 24.645 200 200 200
4207316.087379999 7543976.92736 24.777 200 200 200
4207314.37238 7543978.18136 25.841 200 200 200
4207312.95438 7543977.2993600005 25.906 200 200 200
4207313.09038 7543978.06836 27.054000000000002 200 200 200
4207311.69438 7543977.78036 26.914 200 200 200
4207313.43738 7543977.84736 26.516000000000002 200 200 200
4207316.08938 7543976.51836 24.749000000000002 200 200 200
4207313.17338 7543978.765360001 27.278 200 200 200
4207313.683379999 7543978.25736 26.533 200 200 200
4207314.81238 7543979.21036 26.249000000000002 200 200 200
4207311.08538 7543978.46736 26.767 200 200 200
4207314.706379999 7543979.13336 25.844 200 200 200
4207313.75338 7543978.493360001 26.375 200 200 200
4207311.10738 7543977.0093600005 25.764 200 200 200
4207313.14838 7543977.23536 25.084 200 200 200
4207313.91238 7543979.413360001 27.431 200 200 200
4207311.06238 7543977.08036 25.812 200 200 200
4207311.91038 7543978.62836 27.326 200 200 200
4207316.03538 7543977.24736 25.099 200 200 200
4207315.25438 7543978.71036 25.604 200 200 200
4207310.42438 7543977.146360001 26.112000000000002 200 200 200
4207313.780379999 7543978.03036 26.247 200 200 200
4207313.22038 7543978.73536 27.178 200 200 200
4207315.73338 7543977.7083600005 25.517 200 200 200
4207312.37338 7543977.42036 26.914 200 200 200
4207311.388379999 7543978.32636 27.546 200 200 200
4207314.17438 7543978.61636 26.767 200 200 200
4207314.90738 7543979.54236 27.281 200 200 200
4207315.30738 7543980.54236 27.322 200 200 200
4207313.99838 7543979.697360001 27.576 200 200 200
4207312.56238 7543978.41436 27.448 200 200 200
4207313.200379999 7543977.2253600005 24.666 200 200 200
4207315.95738 7543977.67036 25.595 200 200 200
4207315.92538 7543979.31436 25.757 200 200 200
4207316.14838 7543977.38236 25.083 200 200 200
4207312.85538 7543977.69236 26.301000000000002 200 200 200
4207313.39738 7543978.839360001 27.341 200 200 200
4207315.32238 7543980.8103600005 26.402 200 200 200
4207312.82338 7543977.345360001 25.637 200 200 200
4207314.604379999 7543978.85936 26.662 200 200 200
4207315.450379999 7543979.51436 25.763 200 200 200
4207315.14538 7543980.2593600005 26.313000000000002 200 200 200
4207310.916379999 7543978.5433600005 27.437 200 200 200
4207315.94938 7543979.26436 25.721 200 200 200
4207313.37338 7543979.07136 27.424 200 200 200
4207312.01138 7543977.59936 26.882 200 200 200
4207311.34738 7543978.26736 27.357 200 200 200
4207311.38138 7543976.84236 25.642 200 200 200
4207314.98238 7543977.140360001 24.639 200 200 200
4207313.73138 7543979.23836 27.51 200 200 200
4207310.84638 7543985.96636 26.898 200 200 200
4207317.11438 7543981.95436 28.197 200 200 200
4207316.66238 7543981.57936 28.343 200 200 200
4207316.14338 7543981.46836 28.394000000000002 200 200 200
4207316.61438 7543982.03636 28.407 200 200 200
4207316.39638 7543986.62836 28.103 200 200 200
4207316.7523799995 7543984.59136 28.941 200 200 200
4207316.57738 7543987.88836 27.718 200 200 200
4207316.69338 7543983.97336 28.576 200 200 200
4207316.49438 7543983.33536 28.527 200 200 200
4207316.98938 7543985.95236 27.844 200 200 200
4207316.65038 7543984.16436 28.418 200 200 200
4207316.166379999 7543983.65536 29.177 200 200 200
4207317.07838 7543986.31236 27.810000000000002 200 200 200
4207316.649379999 7543984.30136 28.44 200 200 200
4207316.39638 7543986.828360001 28.060000000000002 200 200 200
4207316.66838 7543987.68736 27.748 200 200 200
4207316.501379999 7543985.40436 28.945 200 200 200
4207316.626379999 7543983.76836 28.580000000000002 200 200 200
4207316.67038 7543984.50636 28.448 200 200 200
4207316.83838 7543982.62436 28.394000000000002 200 200 200
4207317.11138 7543982.19336 28.368000000000002 200 200 200
4207316.25538 7543984.06536 29.192 200 200 200
4207316.848379999 7543987.0433600005 27.905 200 200 200
4207317.01038 7543985.91436 27.933 200 200 200
4207317.01038 7543985.40636 28.073 200 200 200
4207316.524379999 7543985.6003600005 28.852 200 200 200
4207316.14038 7543984.24936 29.251 200 200 200
4207316.75338 7543985.16136 28.711000000000002 200 200 200
4207317.10838 7543982.6003600005 28.371000000000002 200 200 200
4207316.734379999 7543984.74436 28.595 200 200 200
4207316.76038 7543985.17336 28.305 200 200 200
4207320.229379999 7543979.20436 24.73 200 200 200
4207318.96438 7543981.595360001 25.565 200 200 200
4207318.43838 7543982.04236 27.25 200 200 200
4207317.32138 7543981.01136 26.839 200 200 200
4207319.40938 7543980.25336 24.89 200 200 200
4207317.26538 7543977.63336 25.628 200 200 200
4207317.46138 7543979.953360001 25.471 200 200 200
4207320.96038 7543981.4183600005 24.92 200 200 200
4207320.60538 7543979.90436 24.969 200 200 200
4207317.81838 7543977.82736 24.904 200 200 200
4207316.94738 7543978.79536 25.459 200 200 200
4207317.33438 7543978.40636 25.381 200 200 200
4207320.16538 7543978.123360001 24.795 200 200 200
4207318.72038 7543978.13936 24.799 200 200 200
4207320.3093799995 7543981.86936 24.652 200 200 200
4207317.10838 7543981.38836 27.335 200 200 200
4207319.14238 7543981.78136 25.612000000000002 200 200 200
4207319.92538 7543980.69536 24.996000000000002 200 200 200
4207316.26538 7543977.42836 24.791 200 200 200
4207317.41238 7543980.37136 25.6 200 200 200
4207316.26738 7543978.964360001 25.616 200 200 200
4207320.86238 7543979.02036 24.662 200 200 200
4207317.84038 7543981.12436 26.826 200 200 200
4207316.55638 7543979.40336 25.733 200 200 200
4207320.21638 7543981.34636 24.918 200 200 200
4207319.33338 7543981.74036 25.069000000000003 200 200 200
4207320.29838 7543979.02236 24.697 200 200 200
4207317.21038 7543980.96136 26.789 200 200 200
4207319.422379999 7543981.92136 25.077 200 200 200
4207321.32438 7543980.25336 25.078 200 200 200
4207319.729379999 7543979.83836 24.763 200 200 200
4207318.12838 7543981.2593600005 27.09 200 200 200
4207320.02938 7543978.36436 24.712 200 200 200
4207318.02038 7543977.94336 24.927 200 200 200
4207316.3263799995 7543980.79636 27.054000000000002 200 200 200
4207318.42538 7543978.74536 24.732 200 200 200
4207316.399379999 7543979.31236 25.722 200 200 200
4207317.14338 7543979.828360001 25.624000000000002 200 200 200
4207318.17738 7543981.19536 26.839 200 200 200
4207316.20238 7543978.66436 25.547 200 200 200
4207318.28238 7543979.73936 25.024 200 200 200
4207317.63338 7543981.21536 25.681 200 200 200
4207316.212379999 7543977.22136 25.329 200 200 200
4207319.2183799995 7543977.93736 24.782 200 200 200
4207319.97638 7543979.82036 24.815 200 200 200
4207317.916379999 7543980.09336 25.216 200 200 200
4207317.132379999 7543980.61136 26.099 200 200 200
4207318.50938 7543981.60736 27.16 200 200 200
4207318.37938 7543979.00036 24.827 200 200 200
4207317.87338 7543979.67936 25.15 200 200 200
4207320.69338 7543980.62536 24.926000000000002 200 200 200
4207317.57438 7543980.28736 25.4 200 200 200
4207318.62038 7543982.03436 27.137 200 200 200
4207317.97538 7543981.17736 25.469 200 200 200
4207316.66438 7543977.50736 25.197 200 200 200
4207318.33438 7543981.31536 26.913 200 200 200
4207316.35138 7543979.612360001 25.79 200 200 200
4207318.34638 7543980.265360001 25.075 200 200 200
4207317.01638 7543978.237360001 25.536 200 200 200
4207316.70438 7543980.93136 27.307000000000002 200 200 200
4207319.29038 7543981.305360001 25.016 200 200 200
4207319.48138 7543979.88236 24.76 200 200 200
4207318.60038 7543979.57036 24.865000000000002 200 200 200
4207321.257379999 7543981.26936 24.748 200 200 200
4207318.76638 7543977.7423600005 24.923000000000002 200 200 200
4207317.808379999 7543978.80936 25.285 200 200 200
4207319.490379999 7543984.72236 27.037 200 200 200
4207320.04538 7543982.86436 26.693 200 200 200
4207319.92438 7543983.19036 27.103 200 200 200
4207318.08638 7543986.163360001 26.995 200 200 200
4207318.462379999 7543986.203360001 24.612000000000002 200 200 200
4207320.52038 7543985.54536 24.486 200 200 200
4207319.41838 7543982.447360001 25.153 200 200 200
4207318.11938 7543986.40336 24.884 200 200 200
4207319.07838 7543984.80036 26.019 200 200 200
4207319.405379999 7543982.66036 27.278 200 200 200
4207318.44838 7543985.493360001 27.089 200 200 200
4207319.64338 7543984.19036 27.445 200 200 200
4207317.93038 7543987.17236 25.168 200 200 200
4207320.348379999 7543983.11336 24.647 200 200 200
4207319.29538 7543985.23936 26.415 200 200 200
4207317.49738 7543986.27836 27.052 200 200 200
4207317.314379999 7543984.38036 27.694 200 200 200
4207318.234379999 7543986.45936 24.718 200 200 200
4207319.59138 7543982.72136 26.897000000000002 200 200 200
4207319.47138 7543985.19336 26.696 200 200 200
4207317.655379999 7543986.101360001 27.095 200 200 200
4207317.08538 7543987.19236 27.192 200 200 200
4207316.63638 7543987.84236 26.844 200 200 200
4207317.03938 7543987.17036 27.205000000000002 200 200 200
4207319.73838 7543983.57436 27.384 200 200 200
4207320.257379999 7543982.78736 24.819000000000003 200 200 200
4207319.44238 7543982.44336 25.09 200 200 200
4207317.9283799995 7543985.62836 27.121000000000002 200 200 200
4207319.41938 7543982.129360001 25.136 200 200 200
4207319.35638 7543985.46936 26.739 200 200 200
4207319.94338 7543984.34136 27.037 200 200 200
4207319.10338 7543984.71236 27.201 200 200 200
4207319.18538 7543983.32536 25.384 200 200 200
4207319.15238 7543983.30236 27.4 200 200 200
4207319.03338 7543984.26936 24.738 200 200 200
4207316.47438 7543987.42936 25.902 200 200 200
4207320.632379999 7543985.88336 24.466 200 200 200
4207317.31538 7543984.44436 27.642 200 200 200
4207319.82838 7543983.55036 27.347 200 200 200
4207317.81838 7543987.6173600005 25.081 200 200 200
4207318.60638 7543984.98536 27.242 200 200 200
4207319.280379999 7543982.743360001 25.183 200 200 200
4207319.35538 7543984.061360001 25.823 200 200 200
4207319.38038 7543985.3503600005 26.679000000000002 200 200 200
4207319.234379999 7543984.69636 26.149 200 200 200
4207318.33538 7543986.24436 26.867 200 200 200
4207319.62438 7543984.6173600005 27.13 200 200 200
4207319.450379999 7543982.8843600005 27.247 200 200 200
4207317.28938 7543986.52236 27.311 200 200 200
4207319.200379999 7543982.69036 27.39 200 200 200
4207317.20538 7543983.70136 27.685000000000002 200 200 200
4207320.56338 7543986.29036 24.468 200 200 200
4207317.36338 7543987.64936 25.217 200 200 200
4207319.88738 7543985.92836 24.499000000000002 200 200 200
4207319.32738 7543982.78136 25.094 200 200 200
4207319.013379999 7543984.89136 27.196 200 200 200
4207320.04438 7543983.46836 26.589 200 200 200
4207317.405379999 7543986.226360001 25.823 200 200 200
4207317.47538 7543984.97336 27.439 200 200 200
4207317.16038 7543987.54036 25.282 200 200 200
4207317.81838 7543986.50336 26.731 200 200 200
4207318.76538 7543984.339360001 27.36 200 200 200
4207317.32338 7543983.39136 27.465 200 200 200
4207319.9453799995 7543983.26836 27.215 200 200 200
4207317.40738 7543984.686360001 27.535 200 200 200
4207317.44738 7543986.328360001 27.406 200 200 200
4207320.65638 7543985.4753600005 24.464 200 200 200
4207316.63638 7543986.93836 25.7 200 200 200
4207317.46038 7543983.470360001 27.337 200 200 200
4207317.43138 7543986.46936 26.907 200 200 200
4207316.86438 7543986.73336 25.681 200 200 200
4207316.65938 7543987.22836 25.667 200 200 200
4207318.20738 7543987.589360001 24.716 200 200 200
4207319.23838 7543984.21036 25.996000000000002 200 200 200
4207318.93538 7543982.28636 27.145 200 200 200
4207318.69638 7543985.2933600005 27.121000000000002 200 200 200
4207318.07238 7543986.36336 24.961 200 200 200
4207319.13638 7543987.510360001 24.519 200 200 200
4207319.38938 7543982.47136 26.89 200 200 200
4207318.83938 7543982.77536 27.323 200 200 200
4207319.149379999 7543985.00036 27.13 200 200 200
4207319.41838 7543984.476360001 27.348 200 200 200
4207316.837379999 7543987.43436 27.134 200 200 200
4207320.21538 7543983.51436 27.16 200 200 200
4207319.37338 7543984.69636 27.291 200 200 200
4207319.38938 7543982.20936 25.577 200 200 200
4207319.58838 7543982.91636 27.07 200 200 200
4207308.19038 7543968.10336 21.72 100 100 100
4207309.14138 7543967.37636 21.642000000000003 100 100 100
4207307.85838 7543966.78436 21.662 100 100 100
4207309.07138 7543967.34636 21.845 100 100 100
4207307.797379999 7543968.47736 22.191000000000003 100 100 100
4207307.63338 7543973.81836 22.489 100 100 100
4207307.45538 7543972.96336 22.560000000000002 100 100 100
4207309.88338 7543973.220360001 21.679000000000002 100 100 100
4207308.06738 7543972.08536 22.598 100 100 100
4207307.77338 7543973.46236 22.27 100 100 100
4207307.67738 7543973.7083600005 22.53 100 100 100
4207307.22138 7543973.22836 21.627000000000002 100 100 100
4207307.23138 7543972.97736 22.47 100 100 100
4207306.96138 7543968.04136 21.005000000000003 100 100 100
4207307.05238 7543967.59236 21.055 100 100 100
4207306.77538 7543968.06336 21.308 100 100 100
4207306.984379999 7543967.618360001 21.104 100 100 100
4207308.4283799995 7543967.88836 21.017000000000003 100 100 100
4207306.33438 7543966.86536 21.056 100 100 100
4207306.53838 7543966.99436 20.953000000000003 100 100 100
4207306.2013799995 7543968.04536 20.519 100 100 100
4207305.88338 7543969.101360001 19.008000000000003 100 100 100
4207305.70438 7543969.31536 18.862000000000002 100 100 100
4207306.41038 7543968.46736 20.104 100 100 100
4207307.54438 7543967.1513600005 21.461 100 100 100
4207307.342379999 7543967.896360001 21.15 100 100 100
4207308.26738 7543967.8333600005 21.169 100 100 100
4207305.956379999 7543969.65336 18.538 100 100 100
4207306.35838 7543967.805360001 20.627000000000002 100 100 100
4207307.29838 7543968.07136 21.095 100 100 100
4207306.33538 7543967.33036 19.472 100 100 100
4207307.854379999 7543975.17936 18.209 100 100 100
4207305.3943799995 7543970.0603600005 18.271 100 100 100
4207308.32438 7543972.453360001 19.204 100 100 100
4207307.26238 7543973.98536 18.881999999999998 100 100 100
4207305.23638 7543969.84236 18.377000000000002 100 100 100
4207308.53838 7543972.4413600005 19.903 100 100 100
4207311.01538 7543975.08736 20.916 100 100 100
4207311.655379999 7543975.68936 20.194000000000003 100 100 100
4207311.60338 7543974.81736 20.887999999999998 100 100 100
4207311.10338 7543974.49736 21.159 100 100 100
4207305.40338 7543978.10436 23.881 100 100 100
4207306.52338 7543983.260360001 24.355 200 200 200
4207306.55438 7543987.095360001 24.185000000000002 200 200 200
4207315.06238 7543976.79636 24.002000000000002 200 200 200
4207311.4513799995 7543976.65336 24.113 200 200 200
4207313.3603799995 7543977.14436 24.504 200 200 200
4207313.76838 7543976.703360001 23.186 200 200 200
4207314.882379999 7543976.84036 24.012 200 200 200
4207316.092379999 7543976.37536 24.639 200 200 200
4207311.80638 7543976.8163600005 24.441000000000003 200 200 200
4207311.67538 7543976.81836 24.186 200 200 200
4207312.60838 7543976.89536 23.682000000000002 200 200 200
4207314.48138 7543976.50036 23.740000000000002 200 200 200
4207314.67138 7543977.14436 24.435000000000002 200 200 200
4207312.75438 7543984.26936 22.474 200 200 200
4207310.12838 7543976.27236 21.047 200 200 200
4207308.94838 7543978.03436 18.195 200 200 200
4207308.79538 7543976.788360001 18.187 200 200 200
4207309.37238 7543978.45536 18.351 200 200 200
4207309.8943799995 7543976.90336 21.322000000000003 200 200 200
4207309.03938 7543979.00236 19.287 200 200 200
4207309.81938 7543983.51836 19.979 200 200 200
4207308.88938 7543984.40636 20.091 200 200 200
4207306.36138 7543985.69236 18.461 200 200 200
4207306.84638 7543983.84236 18.218 200 200 200
4207305.16438 7543985.80336 18.478 100 100 100
4207305.47838 7543986.32036 19.861 100 100 100
4207308.53438 7543985.06236 19.541 200 200 200
4207305.92438 7543985.88136 18.86 100 100 100
4207307.11138 7543986.61636 19.229 200 200 200
4207306.02338 7543984.26936 18.786 200 200 200
4207307.831379999 7543985.96036 19.477 200 200 200
4207307.14038 7543986.40936 18.904 200 200 200
4207305.38438 7543985.51736 18.866 100 100 100
4207305.240379999 7543985.12436 18.178 100 100 100
4207307.85638 7543985.86336 19.403 200 200 200
4207305.80438 7543984.25736 18.367 100 100 100
4207306.75638 7543986.63036 18.846 200 200 200
4207304.882379999 7543987.11336 18.761000000000003 100 100 100
4207304.73938 7543986.7593600005 17.995 100 100 100
4207305.71538 7543985.6003600005 19.348 100 100 100
4207309.50438 7543983.62136 19.873 200 200 200
4207307.96538 7543987.10336 17.89 200 200 200
4207305.138379999 7543986.65836 18.431 100 100 100
4207305.61738 7543983.33736 19.048000000000002 100 100 100
4207306.04438 7543984.20636 18.839 200 200 200
4207304.95538 7543986.76336 18.630000000000003 100 100 100
4207305.3203799995 7543985.45936 18.715 100 100 100
4207310.97738 7543979.83636 19.15 200 200 200
4207311.72538 7543975.74736 20.054000000000002 100 100 100
4207312.63638 7543984.03336 20.057000000000002 200 200 200
4207311.88038 7543983.93936 18.039 200 200 200
4207312.19338 7543984.12836 19.57 200 200 200
4207312.26238 7543983.78436 20.936 200 200 200
4207312.48838 7543983.88236 18.145 200 200 200
4207312.25338 7543984.03136 20.055 200 200 200
4207312.439379999 7543984.16236 19.698 200 200 200
4207321.75838 7543966.99636 22.795 100 100 100
4207322.0423799995 7543968.01836 21.668 100 100 100
4207320.4453799995 7543966.9923600005 23.093 100 100 100
4207320.82438 7543967.106360001 21.913 100 100 100
4207321.47038 7543966.748360001 22.533 100 100 100
4207320.825379999 7543966.90336 21.93 100 100 100
4207320.50438 7543966.72836 22.313000000000002 100 100 100
4207321.3203799995 7543967.33236 21.91 100 100 100
4207320.01638 7543966.99436 21.708 100 100 100
4207320.71338 7543967.4753600005 21.738 100 100 100
4207319.94838 7543966.92736 21.709 100 100 100
4207319.97438 7543967.21936 22.844 100 100 100
4207320.22738 7543966.91136 22.637 100 100 100
4207322.59038 7543966.70436 23.060000000000002 100 100 100
4207322.93538 7543967.561360001 22.42 100 100 100
4207322.9453799995 7543966.91136 23.374000000000002 100 100 100
4207322.65338 7543967.67636 23.049 100 100 100
4207320.939379999 7543968.18336 21.506 100 100 100
4207319.95238 7543967.24936 21.473 100 100 100
4207321.37538 7543968.5263600005 20.967 100 100 100
4207321.39538 7543968.62636 21.092 100 100 100
4207321.592379999 7543968.010360001 21.576999999999998 100 100 100
4207321.25538 7543968.58436 21.409 100 100 100
4207320.93838 7543967.92036 21.627000000000002 100 100 100
4207322.234379999 7543967.970360001 21.036 100 100 100
4207322.149379999 7543967.85936 19.34 100 100 100
4207322.13538 7543968.27836 21.523 100 100 100
4207322.621379999 7543967.38036 19.569000000000003 100 100 100
4207320.456379999 7543980.79836 22.841 200 200 200
4207321.13638 7543981.2933600005 23.897 200 200 200
4207317.53538 7543977.31536 24.446 200 200 200
4207317.467379999 7543976.98336 24.53 200 200 200
4207316.22738 7543976.44236 24.638 200 200 200
4207321.27838 7543981.23536 23.443 200 200 200
4207321.2013799995 7543979.510360001 24.538 200 200 200
4207318.30538 7543977.72436 24.135 200 200 200
4207321.11438 7543981.37836 23.832 200 200 200
4207317.24238 7543976.80236 24.558 200 200 200
4207320.26738 7543978.59836 23.934 200 200 200
4207316.83238 7543977.41636 24.604 200 200 200
4207317.24338 7543976.59336 24.5 200 200 200
4207316.99338 7543977.24536 24.457 200 200 200
4207317.76538 7543977.49436 24.113 200 200 200
4207321.0593799995 7543984.70036 23.508 200 200 200
4207320.83438 7543983.47836 23.804000000000002 200 200 200
4207320.967379999 7543984.75636 23.633 200 200 200
4207320.72638 7543985.157360001 24.446 200 200 200
4207320.93238 7543982.44336 23.589 200 200 200
4207321.1843799995 7543982.20736 23.431 200 200 200
4207320.86138 7543982.72336 23.708 200 200 200
4207320.81838 7543982.45136 23.702 200 200 200
4207320.3203799995 7543985.19936 24.418 200 200 200
4207321.10738 7543984.64536 23.371000000000002 200 200 200
4207320.35538 7543983.72736 24.099 200 200 200
4207319.240379999 7543984.33736 24.446 200 200 200
4207321.234379999 7543985.12636 23.727 200 200 200
4207321.13738 7543983.05936 23.346 200 200 200
4207320.791379999 7543982.36436 24.009 200 200 200
4207320.75538 7543985.70436 23.901 200 200 200
4207321.06538 7543983.98536 23.323 200 200 200
4207320.626379999 7543982.23836 24.442 200 200 200
4207320.90438 7543983.81836 23.529 200 200 200
4207321.15838 7543983.19636 23.369 200 200 200
4207320.78938 7543984.2083600005 23.595 200 200 200
4207320.58638 7543982.88036 23.969 200 200 200
4207321.20838 7543982.55236 23.233 200 200 200
4207319.44438 7543984.31336 24.422 200 200 200
4207321.479379999 7543982.20136 23.357 200 200 200
4207309.49938 7543988.93936 28.491 200 200 200
4207310.1843799995 7543990.18436 27.615000000000002 200 200 200
4207310.10638 7543988.32936 28.763 200 200 200
4207310.10038 7543989.777360001 28.765 200 200 200
4207308.990379999 7543987.981360001 28.145 200 200 200
4207310.05738 7543989.73936 28.589000000000002 200 200 200
4207309.84738 7543989.53736 27.743000000000002 200 200 200
4207309.456379999 7543987.97136 28.578 200 200 200
4207310.03538 7543988.78436 28.802 200 200 200
4207309.7013799995 7543988.964360001 28.517 200 200 200
4207309.09938 7543988.33136 28.263 200 200 200
4207310.189379999 7543989.73536 28.818 200 200 200
4207309.20538 7543989.00836 28.526 200 200 200
4207309.24338 7543988.91136 27.59 200 200 200
4207305.87438 7543994.15636 27.976 200 200 200
4207314.05138 7543989.62236 28.612000000000002 200 200 200
4207312.98938 7543990.6913600005 28.441000000000003 200 200 200
4207313.115379999 7543989.98036 29.169 200 200 200
4207312.59938 7543990.25036 28.906 200 200 200
4207312.48838 7543989.17936 29.097 200 200 200
4207314.54338 7543988.31536 29.231 200 200 200
4207314.72738 7543988.140360001 29.008 200 200 200
4207315.16938 7543988.96636 27.988 200 200 200
4207311.04038 7543988.97236 29.412 200 200 200
4207310.79838 7543990.20636 28.733 200 200 200
4207315.2183799995 7543988.81736 27.814 200 200 200
4207315.416379999 7543988.26136 28.209 200 200 200
4207314.43038 7543988.69236 29.145 200 200 200
4207315.04838 7543988.36636 28.699 200 200 200
4207312.740379999 7543988.561360001 29.0 200 200 200
4207314.25938 7543988.84736 28.519000000000002 200 200 200
4207312.73738 7543988.976360001 29.091 200 200 200
4207313.54638 7543990.3673600005 28.908 200 200 200
4207315.354379999 7543988.81336 27.752000000000002 200 200 200
4207315.39538 7543988.01136 28.203 200 200 200
4207312.06738 7543988.19236 28.929000000000002 200 200 200
4207310.888379999 7543989.25336 28.96 200 200 200
4207313.95938 7543988.362360001 28.998 200 200 200
4207310.91038 7543990.34336 28.73 200 200 200
4207314.27638 7543989.77936 28.584 200 200 200
4207315.34538 7543987.99136 28.52 200 200 200
4207314.939379999 7543988.80936 28.308 200 200 200
4207311.45238 7543989.4753600005 28.894000000000002 200 200 200
4207314.46538 7543989.521360001 28.173000000000002 200 200 200
4207314.899379999 7543988.54136 29.493000000000002 200 200 200
4207311.36238 7543988.521360001 29.145 200 200 200
4207314.57138 7543988.50536 28.77 200 200 200
4207314.47138 7543988.50736 29.378 200 200 200
4207315.55638 7543988.55736 27.937 200 200 200
4207312.08538 7543988.76836 29.067 200 200 200
4207313.70338 7543990.04136 29.069 200 200 200
4207312.17938 7543988.03736 28.984 200 200 200
4207311.10838 7543989.169360001 29.331 200 200 200
4207313.166379999 7543990.862360001 28.603 200 200 200
4207315.8943799995 7543988.180360001 28.011 200 200 200
4207313.916379999 7543989.419360001 28.629 200 200 200
4207313.825379999 7543989.31436 28.746000000000002 200 200 200
4207313.615379999 7543989.40836 29.072 200 200 200
4207312.08038 7543989.811360001 27.659 200 200 200
4207313.79438 7543990.30436 28.937 200 200 200
4207313.37438 7543988.58136 28.926000000000002 200 200 200
4207311.06838 7543990.010360001 28.803 200 200 200
4207314.20538 7543990.28036 28.622 200 200 200
4207313.8943799995 7543989.28436 28.645 200 200 200
4207313.94038 7543989.1913600005 28.61 200 200 200
4207312.01438 7543989.81736 28.901 200 200 200
4207307.35138 7543988.57936 26.042 200 200 200
4207309.0703799995 7543989.84936 26.844 200 200 200
4207307.541379999 7543993.169360001 25.701 200 200 200
4207305.00038 7543993.27036 25.102 200 200 200
4207310.05138 7543991.20036 25.864 200 200 200
4207306.11638 7543992.86536 27.375 200 200 200
4207309.2693799995 7543989.98036 27.082 200 200 200
4207305.797379999 7543991.24036 26.576 200 200 200
4207307.45338 7543991.470360001 25.971 200 200 200
4207307.82238 7543989.70236 25.915 200 200 200
4207307.280379999 7543993.19936 26.396 200 200 200
4207308.83038 7543988.12836 26.847 200 200 200
4207309.75038 7543990.50236 26.501 200 200 200
4207308.09438 7543992.64436 26.478 200 200 200
4207309.45538 7543990.328360001 26.593 200 200 200
4207308.825379999 7543993.48336 27.044 200 200 200
4207308.99838 7543989.84736 27.122 200 200 200
4207308.00038 7543989.25136 26.206 200 200 200
4207308.22438 7543989.90036 26.128 200 200 200
4207310.325379999 7543991.55936 25.514 200 200 200
4207305.450379999 7543991.061360001 27.2 200 200 200
4207307.575379999 7543989.78736 25.861 200 200 200
4207308.42138 7543990.30836 26.398 200 200 200
4207304.76638 7543990.92036 24.880000000000003 200 200 200
4207306.32238 7543989.11336 25.427 200 200 200
4207308.42338 7543988.67836 26.679000000000002 200 200 200
4207308.23638 7543990.35336 25.254 200 200 200
4207305.75538 7543993.14736 27.252000000000002 200 200 200
4207308.274379999 7543988.197360001 26.335 200 200 200
4207305.1953799995 7543992.26736 25.876 200 200 200
4207308.81838 7543988.82136 27.337 200 200 200
4207308.60538 7543989.25336 26.501 200 200 200
4207305.5763799995 7543989.40636 25.429000000000002 100 100 100
4207305.65838 7543992.6343600005 25.058 200 200 200
4207309.09138 7543991.73836 26.429000000000002 200 200 200
4207308.02838 7543990.60236 25.551000000000002 200 200 200
4207307.03438 7543990.75536 26.963 200 200 200
4207306.007379999 7543991.18836 26.198 200 200 200
4207308.717379999 7543992.77436 26.947 200 200 200
4207304.62538 7543993.095360001 24.635 200 200 200
4207307.9113799995 7543992.85336 26.560000000000002 200 200 200
4207308.96538 7543991.55936 25.888 200 200 200
4207308.44738 7543993.038360001 26.876 200 200 200
4207308.59738 7543990.74936 26.54 200 200 200
4207308.31838 7543993.00836 26.495 200 200 200
4207306.62938 7543990.5263600005 26.966 200 200 200
4207306.27938 7543990.95936 26.167 200 200 200
4207307.19938 7543988.976360001 25.638 200 200 200
4207305.041379999 7543990.45536 24.702 200 200 200
4207308.31138 7543993.06236 26.887 200 200 200
4207307.73038 7543989.93436 25.985 200 200 200
4207305.70938 7543990.12736 25.373 200 200 200
4207307.14338 7543991.54836 26.982 200 200 200
4207305.38138 7543991.46236 27.127000000000002 200 200 200
4207305.58638 7543991.21636 25.726 200 200 200
4207307.07938 7543990.294360001 25.706 200 200 200
4207308.18038 7543988.90336 26.380000000000003 200 200 200
4207308.35138 7543992.754360001 27.288 200 200 200
4207309.40838 7543990.84436 26.554000000000002 200 200 200
4207306.4453799995 7543990.05736 25.899 200 200 200
4207308.859379999 7543987.96536 26.508000000000003 200 200 200
4207309.10838 7543988.5833600005 24.859 200 200 200
4207308.59638 7543989.18736 27.086 200 200 200
4207305.17138 7543993.2253600005 27.12 200 200 200
4207305.21438 7543990.18236 25.255000000000003 200 200 200
4207310.291379999 7543990.01636 26.618000000000002 200 200 200
4207307.03538 7543989.578360001 25.838 200 200 200
4207309.3433799995 7543990.5263600005 26.537 200 200 200
4207306.19638 7543990.59436 25.834 200 200 200
4207309.65938 7543990.61436 26.473 200 200 200
4207306.609379999 7543990.669360001 26.76 200 200 200
4207309.13438 7543988.57136 24.707 200 200 200
4207309.37538 7543991.25336 25.72 200 200 200
4207308.6103799995 7543995.73636 25.783 200 200 200
4207307.23638 7543994.64136 24.598 200 200 200
4207307.42538 7543995.72836 25.168 200 200 200
4207305.40138 7543993.98036 25.201 200 200 200
4207306.15138 7543993.868360001 24.89 200 200 200
4207305.12938 7543993.96036 26.683 200 200 200
4207307.90038 7543994.68336 25.361 200 200 200
4207308.47138 7543994.822360001 26.248 200 200 200
4207307.95738 7543995.86136 25.687 200 200 200
4207306.62038 7543993.646360001 26.648 200 200 200
4207307.15238 7543995.89336 25.251 200 200 200
4207304.66238 7543993.73536 25.0 200 200 200
4207307.25838 7543995.77236 25.724 200 200 200
4207305.66838 7543993.64436 26.935000000000002 200 200 200
4207305.63038 7543993.805360001 26.411 200 200 200
4207309.35538 7543994.63136 26.068 200 200 200
4207307.64338 7543996.73836 25.335 100 100 100
4207307.604379999 7543995.17836 25.36 200 200 200
4207305.172379999 7543993.64236 26.958000000000002 200 200 200
4207308.72638 7543995.078360001 25.749000000000002 200 200 200
4207308.82738 7543995.78436 24.933 200 200 200
4207306.50638 7543993.98236 26.589 200 200 200
4207308.25638 7543994.66136 25.655 200 200 200
4207307.41538 7543994.24636 26.168 200 200 200
4207307.09038 7543993.737360001 26.902 200 200 200
4207308.84538 7543996.40036 25.007 100 100 100
4207305.9283799995 7543994.74736 24.55 200 200 200
4207308.416379999 7543995.34336 25.398 200 200 200
4207306.02238 7543993.86436 24.547 200 200 200
4207307.52238 7543994.87236 26.356 200 200 200
4207305.93138 7543994.53436 24.442 200 200 200
4207307.94638 7543994.504360001 25.391000000000002 200 200 200
4207304.75038 7543993.65836 25.167 200 200 200
4207304.93838 7543994.06336 24.537 200 200 200
4207315.82338 7543988.20736 25.487000000000002 200 200 200
4207311.67638 7543990.29036 27.43 200 200 200
4207314.984379999 7543988.76636 26.889 200 200 200
4207314.35238 7543989.01836 25.522 200 200 200
4207315.234379999 7543989.42736 26.658 200 200 200
4207312.12438 7543989.53736 26.474 200 200 200
4207314.21438 7543988.98236 25.649 200 200 200
4207314.51438 7543989.07036 25.306 200 200 200
4207315.94038 7543989.36436 24.939 200 200 200
4207311.314379999 7543989.78336 26.198 200 200 200
4207311.27038 7543989.714360001 26.186 200 200 200
4207310.4683799995 7543991.9413600005 24.91 200 200 200
4207315.876379999 7543989.63036 24.602 200 200 200
4207311.22238 7543990.10536 26.265 200 200 200
4207315.3033799995 7543989.36436 25.252000000000002 200 200 200
4207313.8773799995 7543989.83736 26.755 200 200 200
4207315.84438 7543988.76436 26.817 200 200 200
4207315.1843799995 7543988.88136 25.758000000000003 200 200 200
4207312.20338 7543989.99036 27.047 200 200 200
4207315.02938 7543989.75136 25.305 200 200 200
4207315.46138 7543988.5833600005 26.832 200 200 200
4207313.21338 7543989.66036 27.403 200 200 200
4207315.67038 7543989.62236 24.792 200 200 200
4207315.48338 7543989.76336 25.155 200 200 200
4207312.49938 7543989.90836 26.873 200 200 200
4207316.13938 7543988.53536 25.341 200 200 200
4207314.80438 7543989.05436 26.805 200 200 200
4207313.71338 7543989.13736 25.909 200 200 200
4207312.814379999 7543990.004360001 26.91 200 200 200
4207316.07238 7543988.53336 25.315 200 200 200
4207316.5703799995 7543988.106360001 26.761 200 200 200
4207317.04338 7543989.8843600005 24.894 200 200 200
4207316.507379999 7543989.481360001 24.673000000000002 200 200 200
4207317.751379999 7543988.652360001 24.712 200 200 200
4207316.38738 7543987.89536 25.535 200 200 200
4207316.63938 7543988.76636 25.059 200 200 200
4207316.15938 7543988.9013600005 26.803 200 200 200
4207316.729379999 7543988.25736 25.224 200 200 200
4207316.75338 7543989.356360001 24.804000000000002 200 200 200
4207316.25038 7543988.29736 26.894000000000002 200 200 200
4207316.70738 7543989.00836 24.977 200 200 200
4207316.21138 7543989.004360001 24.962 200 200 200
4207318.882379999 7543988.55336 24.556 200 200 200
4207319.22038 7543988.37436 24.575 200 200 200
4207317.61338 7543989.37436 24.706 200 200 200
4207318.49838 7543988.243360001 24.663 200 200 200
4207316.23838 7543989.606360001 24.554000000000002 200 200 200
4207305.058379999 7543987.76836 21.624000000000002 100 100 100
4207304.7923799995 7543987.85836 21.316000000000003 100 100 100
4207305.06038 7543993.20136 22.783 200 200 200
4207307.729379999 7543987.75636 23.908 200 200 200
4207305.90438 7543989.92836 23.148 100 100 100
4207310.104379999 7543991.27536 23.948 200 200 200
4207305.34138 7543987.62136 22.314 100 100 100
4207307.46438 7543988.32736 23.398 200 200 200
4207305.109379999 7543987.8103600005 21.268 100 100 100
4207304.615379999 7543992.26136 24.098 200 200 200
4207305.83338 7543994.66136 23.474 200 200 200
4207304.79438 7543993.75536 22.363 200 200 200
4207305.25638 7543994.0833600005 21.621000000000002 200 200 200
4207305.50538 7543994.12736 21.584 200 200 200
4207305.73338 7543993.3843600005 23.049 200 200 200
4207304.67438 7543993.48336 22.927 200 200 200
4207306.08238 7543993.703360001 23.664 200 200 200
4207307.797379999 7543995.72836 23.141 200 200 200
4207307.47538 7543993.87836 21.207 200 200 200
4207304.859379999 7543994.123360001 23.875 200 200 200
4207304.74938 7543994.14136 20.933 200 200 200
4207306.33938 7543993.3503600005 23.18 200 200 200
4207304.96138 7543993.84436 21.778 200 200 200
4207308.35738 7543993.805360001 21.099 200 200 200
4207307.26238 7543994.78436 21.526 200 200 200
4207305.48938 7543993.29636 22.821 200 200 200
4207305.56938 7543994.58036 23.031 200 200 200
4207308.21538 7543994.23236 21.354 200 200 200
4207308.706379999 7543995.919360001 22.621000000000002 200 200 200
4207310.246379999 7543995.28536 21.111 200 200 200
4207306.16538 7543994.07936 22.666 200 200 200
4207312.4853799995 7543992.96036 21.357 200 200 200
4207310.85138 7543988.21136 23.216 200 200 200
4207311.10538 7543995.3673600005 20.948 200 200 200
4207311.53538 7543993.41536 21.43 200 200 200
4207305.212379999 7543987.78036 19.165 100 100 100
4207305.064379999 7543987.77836 18.581 100 100 100
4207304.79938 7543987.95936 20.883000000000003 100 100 100
4207305.27038 7543987.71936 18.380000000000003 100 100 100
4207304.73338 7543988.15036 20.725 100 100 100
4207305.77538 7543992.430360001 20.714 200 200 200
4207304.99738 7543987.79236 19.899 100 100 100
4207306.496379999 7543998.19636 19.181 100 100 100
4207306.8433799995 7543997.23036 18.965 100 100 100
4207308.88538 7543995.42636 20.111 200 200 200
4207308.5423799995 7543994.828360001 19.122 200 200 200
4207305.75338 7543996.68436 19.556 100 100 100
4207310.2863799995 7543994.58236 20.215 200 200 200
4207305.86438 7543998.26236 19.188000000000002 100 100 100
4207308.80238 7543994.55036 19.891 200 200 200
4207305.64138 7543997.23036 19.326999999999998 100 100 100
4207305.74338 7543994.27036 20.808 200 200 200
4207309.95838 7543994.75136 19.499000000000002 200 200 200
4207306.82438 7543997.544360001 18.64 100 100 100
4207310.00638 7543994.15836 19.463 200 200 200
4207306.11938 7543994.16036 18.53 200 200 200
4207305.28538 7543996.45136 19.23 100 100 100
4207305.67538 7543996.33636 18.880000000000003 100 100 100
4207306.723379999 7543998.21036 19.067 100 100 100
4207304.90738 7543994.453360001 19.442 200 200 200
4207305.001379999 7543994.02936 20.67 200 200 200
4207306.15038 7543994.06736 20.79 200 200 200
4207304.950379999 7543996.14736 19.122 100 100 100
4207306.48738 7543994.703360001 17.923000000000002 200 200 200
4207308.56538 7543994.84636 20.517000000000003 200 200 200
4207306.41338 7543997.07736 19.056 100 100 100
4207304.89038 7543995.11036 18.881 200 200 200
4207308.47838 7543995.42836 20.134 200 200 200
4207309.166379999 7543994.49436 19.755000000000003 200 200 200
4207310.94638 7543995.08836 19.737000000000002 200 200 200
4207311.047379999 7543995.02936 20.399 200 200 200
4207310.61738 7543993.970360001 20.765 200 200 200
4207311.01438 7543995.11036 19.712 200 200 200
4207310.79938 7543993.94436 20.716 200 200 200
4207311.53538 7543995.01336 19.603 200 200 200
4207307.97038 7543998.78436 18.54 100 100 100
4207307.02738 7543999.68436 19.387999999999998 100 100 100
4207306.26738 7543998.92336 19.237000000000002 100 100 100
4207308.86338 7543999.98636 18.806 100 100 100
4207287.17138 7543968.74936 16.915 100 100 100
4207286.68038 7543967.50536 16.955 100 100 100
4207286.01838 7543968.85236 15.714 100 100 100
4207286.604379999 7543968.90036 15.703 100 100 100
4207286.23738 7543967.86336 16.336 100 100 100
4207287.48138 7543968.51436 17.378999999999998 100 100 100
4207286.098379999 7543968.481360001 15.001 100 100 100
4207286.17138 7543967.58836 16.329 100 100 100
4207286.85238 7543968.8163600005 15.783 100 100 100
4207287.32938 7543969.04136 15.450000000000001 100 100 100
4207286.99938 7543969.20436 14.937 100 100 100
4207287.48338 7543969.03536 17.099 100 100 100
4207288.88338 7543969.345360001 16.922 100 100 100
4207289.547379999 7543967.771360001 18.181 100 100 100
4207288.97438 7543969.30336 16.961 100 100 100
4207289.706379999 7543969.095360001 17.731 100 100 100
4207290.609379999 7543968.9243600005 16.37 100 100 100
4207289.4113799995 7543969.152360001 15.027000000000001 100 100 100
4207291.1783799995 7543967.2253600005 15.173 100 100 100
4207289.48038 7543969.40936 16.264000000000003 100 100 100
4207289.41438 7543968.84436 16.29 100 100 100
4207290.98238 7543968.04536 17.269 100 100 100
4207291.11138 7543968.010360001 16.231 100 100 100
4207290.422379999 7543969.53036 16.608 100 100 100
4207289.97038 7543967.25136 17.296 100 100 100
4207288.4283799995 7543966.92336 17.803 100 100 100
4207289.3203799995 7543968.84236 16.556 100 100 100
4207287.9513799995 7543969.24636 17.439 100 100 100
4207287.64338 7543969.0093600005 15.605 100 100 100
4207287.99438 7543969.31936 17.500999999999998 100 100 100
4207288.01638 7543968.17136 17.872 100 100 100
4207289.73738 7543969.02936 17.200000000000003 100 100 100
4207287.94438 7543968.01236 18.154 100 100 100
4207289.96538 7543967.53536 17.466 100 100 100
4207287.83838 7543968.22236 17.679000000000002 100 100 100
4207289.70738 7543968.91236 17.71 100 100 100
4207289.342379999 7543969.3333600005 16.468 100 100 100
4207292.07338 7543974.63036 16.351 100 100 100
4207292.04338 7543972.4923600005 17.380000000000003 100 100 100
4207290.31838 7543970.06236 15.91 100 100 100
4207291.49238 7543973.74036 16.282 100 100 100
4207288.0933799995 7543969.78636 16.83 100 100 100
4207290.024379999 7543969.57536 16.072000000000003 100 100 100
4207290.24438 7543970.35836 16.232 100 100 100
4207289.1673799995 7543969.68136 16.002000000000002 100 100 100
4207288.83838 7543969.61136 16.877000000000002 100 100 100
4207291.92038 7543974.40836 16.115000000000002 100 100 100
4207288.55538 7543970.13836 16.101 100 100 100
4207287.96138 7543969.62136 16.745 100 100 100
4207292.00338 7543969.83236 17.776 100 100 100
4207292.21038 7543974.646360001 16.262999999999998 100 100 100
4207288.08938 7543969.788360001 15.715 100 100 100
4207285.25538 7543967.66236 12.988 100 100 100
4207285.4343799995 7543967.9583600005 13.007000000000001 100 100 100
4207285.45338 7543968.731360001 13.039000000000001 100 100 100
4207286.66938 7543968.76336 14.540000000000001 100 100 100
4207286.2923799995 7543969.19836 14.046 100 100 100
4207285.734379999 7543967.90036 13.986 100 100 100
4207285.58238 7543967.54136 13.728000000000002 100 100 100
4207285.34638 7543967.885360001 12.931999999999999 100 100 100
4207285.85338 7543969.99736 13.009 100 100 100
4207286.78138 7543970.98636 12.597000000000001 100 100 100
4207286.757379999 7543969.50236 14.434000000000001 100 100 100
4207286.86738 7543970.67236 12.922 100 100 100
4207286.30238 7543969.98936 13.177 100 100 100
4207286.87038 7543970.77236 12.729 100 100 100
4207287.51538 7543970.6173600005 13.332 100 100 100
4207287.27038 7543970.5493600005 14.498999999999999 100 100 100
4207285.98738 7543970.072360001 13.084 100 100 100
4207292.75038 7543967.98236 12.639 100 100 100
4207293.166379999 7543967.02036 13.628 100 100 100
4207288.96138 7543970.89336 14.462 100 100 100
4207290.9853799995 7543970.85536 12.14 100 100 100
4207288.10138 7543971.41736 14.558 100 100 100
4207291.16538 7543970.47836 12.227 100 100 100
4207289.5763799995 7543971.20736 14.102 100 100 100
4207290.03738 7543969.54636 13.955000000000002 100 100 100
4207289.32138 7543971.29036 11.728000000000002 100 100 100
4207288.55738 7543971.02036 14.355 100 100 100
4207291.25538 7543971.038360001 12.161999999999999 100 100 100
4207291.40638 7543970.82536 12.600000000000001 100 100 100
4207289.626379999 7543970.45036 13.956 100 100 100
4207288.90338 7543970.69636 12.526 100 100 100
4207285.37338 7543980.561360001 14.712 100 100 100
4207285.126379999 7543980.21836 16.125999999999998 100 100 100
4207285.94738 7543979.669360001 15.726 100 100 100
4207283.96938 7543981.0663600005 16.314999999999998 100 100 100
4207285.44038 7543979.69336 16.344 100 100 100
4207285.97138 7543979.59636 15.639000000000001 100 100 100
4207282.67638 7543979.34736 15.818 100 100 100
4207285.59638 7543980.08736 15.003 100 100 100
4207285.96638 7543979.24436 16.053 100 100 100
4207283.07338 7543980.38936 16.099 100 100 100
4207285.064379999 7543978.288360001 14.893 100 100 100
4207282.78538 7543979.29636 16.023 100 100 100
4207285.04338 7543978.896360001 16.006 100 100 100
4207284.72738 7543980.42636 15.624 100 100 100
4207282.43038 7543980.75036 15.262 100 100 100
4207284.40738 7543979.62236 16.061 100 100 100
4207284.78738 7543980.20036 16.188000000000002 100 100 100
4207285.27138 7543978.75736 15.948 100 100 100
4207284.84638 7543980.48636 15.218 100 100 100
4207285.21938 7543980.36336 15.933 100 100 100
4207283.43538 7543980.981360001 15.832 100 100 100
4207282.274379999 7543980.87136 15.081 100 100 100
4207283.78238 7543979.03736 15.857000000000001 100 100 100
4207283.51038 7543978.930360001 15.934000000000001 100 100 100
4207286.06138 7543979.0433600005 15.805 200 200 200
4207283.274379999 7543980.907360001 16.049 100 100 100
4207283.43838 7543979.28436 16.115000000000002 100 100 100
4207282.4343799995 7543980.86936 15.044 100 100 100
4207285.46038 7543978.38036 15.451 100 100 100
4207282.44838 7543979.510360001 15.889000000000001 100 100 100
4207284.02138 7543978.09036 15.285 100 100 100
4207282.9283799995 7543981.14836 15.115 100 100 100
4207282.94738 7543981.20936 15.304 100 100 100
4207283.98138 7543981.54136 15.441 100 100 100
4207282.683379999 7543981.265360001 14.870000000000001 100 100 100
4207284.01838 7543981.2253600005 16.032 100 100 100
4207284.47038 7543981.80136 15.855 100 100 100
4207292.93238 7543977.47836 16.831 100 100 100
4207292.6953799995 7543976.470360001 16.423000000000002 100 100 100
4207292.60338 7543977.23536 16.353 100 100 100
4207292.94138 7543976.10936 16.687 100 100 100
4207291.60138 7543985.714360001 16.037 200 200 200
4207291.700379999 7543986.00036 16.792 200 200 200
4207292.57138 7543985.38236 16.076 200 200 200
4207292.22438 7543985.59936 16.551000000000002 200 200 200
4207291.48938 7543986.038360001 15.839 200 200 200
4207292.01838 7543985.5493600005 15.346 200 200 200
4207292.32438 7543985.41236 17.342 200 200 200
4207290.93138 7543986.36336 15.409 200 200 200
4207291.50938 7543985.60436 16.09 200 200 200
4207283.87838 7543980.305360001 12.39 100 100 100
4207283.916379999 7543977.1003600005 13.661000000000001 100 100 100
4207284.79938 7543977.90936 14.673 100 100 100
4207286.19338 7543979.532360001 14.538 200 200 200
4207286.5703799995 7543979.481360001 12.132000000000001 200 200 200
4207283.973379999 7543980.65336 13.358 100 100 100
4207284.75338 7543979.68936 11.433 100 100 100
4207282.5933799995 7543980.760360001 12.207 100 100 100
4207283.80638 7543976.54036 12.292000000000002 100 100 100
4207283.81738 7543980.68736 13.216999999999999 100 100 100
4207286.33438 7543977.7763600005 14.633000000000001 100 100 100
4207286.064379999 7543979.24436 11.463000000000001 200 200 200
4207283.02838 7543977.73636 14.021 100 100 100
4207286.263379999 7543977.0433600005 13.661999999999999 100 100 100
4207284.08238 7543980.51436 13.615000000000002 100 100 100
4207285.37938 7543980.46836 14.384 100 100 100
4207284.08638 7543977.57936 14.259 100 100 100
4207285.42038 7543977.25336 14.083000000000002 100 100 100
4207285.4113799995 7543977.05836 13.327000000000002 100 100 100
4207283.53438 7543977.94936 14.69 100 100 100
4207284.6273799995 7543979.82436 12.279 100 100 100
4207285.3943799995 7543979.42536 12.356000000000002 100 100 100
4207284.74138 7543979.79536 12.190999999999999 100 100 100
4207287.25438 7543977.54536 13.667000000000002 100 100 100
4207285.86838 7543977.271360001 14.288 100 100 100
4207286.28438 7543980.10236 14.309000000000001 200 200 200
4207287.10638 7543980.06936 12.387 200 200 200
4207285.02838 7543980.504360001 13.722000000000001 100 100 100
4207283.9173799995 7543976.81436 12.311 100 100 100
4207285.68638 7543977.521360001 14.306000000000001 100 100 100
4207286.450379999 7543977.71836 14.483 100 100 100
4207285.507379999 7543977.4243600005 14.232 100 100 100
4207283.62538 7543976.54236 12.315999999999999 100 100 100
4207284.10838 7543980.11036 12.205000000000002 100 100 100
4207283.20838 7543982.55036 11.354 100 100 100
4207283.17638 7543981.77436 13.553999999999998 100 100 100
4207282.41038 7543982.032360001 11.984000000000002 100 100 100
4207282.74438 7543982.44936 13.523 100 100 100
4207282.79038 7543980.96936 12.545000000000002 100 100 100
4207283.609379999 7543981.203360001 12.049 100 100 100
4207282.717379999 7543982.67036 13.745000000000001 100 100 100
4207282.70238 7543982.14736 13.440999999999999 100 100 100
4207283.35638 7543981.37836 12.245999999999999 100 100 100
4207288.06638 7543978.41036 13.408999999999999 100 100 100
4207287.64838 7543980.0433600005 12.314 200 200 200
