4207283.81738 7543980.68736 13.216999999999999 100 100 100
4207286.33438 7543977.7763600005 14.633000000000001 100 100 100
4207283.02838 7543977.73636 14.021 100 100 100
4207286.263379999 7543977.0433600005 13.661999999999999 100 100 100
4207284.08238 7543980.51436 13.615000000000002 100 100 100
4207285.37938 7543980.46836 14.384 100 100 100
4207284.08638 7543977.57936 14.259 100 100 100
4207285.42038 7543977.25336 14.083000000000002 100 100 100
4207285.4113799995 7543977.05836 13.327000000000002 100 100 100
4207283.53438 7543977.94936 14.69 100 100 100
4207284.6273799995 7543979.82436 12.279 100 100 100
4207285.3943799995 7543979.42536 12.356000000000002 100 100 100
4207284.74138 7543979.79536 12.190999999999999 100 100 100
4207287.25438 7543977.54536 13.667000000000002 100 100 100
4207285.86838 7543977.271360001 14.288 100 100 100
4207285.02838 7543980.504360001 13.722000000000001 100 100 100
4207283.9173799995 7543976.81436 12.311 100 100 100
4207285.68638 7543977.521360001 14.306000000000001 100 100 100
4207286.450379999 7543977.71836 14.483 100 100 100
4207285.507379999 7543977.4243600005 14.232 100 100 100
4207283.62538 7543976.54236 12.315999999999999 100 100 100
4207284.10838 7543980.11036 12.205000000000002 100 100 100
4207283.20838 7543982.55036 11.354 100 100 100
4207283.17638 7543981.77436 13.553999999999998 100 100 100
4207282.41038 7543982.032360001 11.984000000000002 100 100 100
4207282.74438 7543982.44936 13.523 100 100 100
4207282.79038 7543980.96936 12.545000000000002 100 100 100
4207283.609379999 7543981.203360001 12.049 100 100 100
4207282.717379999 7543982.67036 13.745000000000001 100 100 100
4207282.70238 7543982.14736 13.440999999999999 100 100 100
4207283.35638 7543981.37836 12.245999999999999 100 100 100
4207288.06638 7543978.41036 13.408999999999999 100 100 100
4207288.212379999 7543978.93436 12.585999999999999 100 100 100
4207289.28538 7543978.743360001 11.835 100 100 100
4207288.20738 7543977.788360001 13.248000000000001 100 100 100
4207298.91938 7543967.65636 16.242 100 100 100
4207297.82138 7543967.58836 17.164 100 100 100
4207299.02138 7543967.61636 16.878 100 100 100
4207293.33538 7543968.61636 18.079 100 100 100
4207293.77738 7543975.37136 16.786 100 100 100
4207303.17038 7543967.87136 15.575000000000001 100 100 100
4207303.0933799995 7543969.03936 15.774000000000001 100 100 100
4207299.75338 7543967.81936 16.243000000000002 100 100 100
4207303.77838 7543972.32136 17.18 100 100 100
4207304.08538 7543970.50136 18.203000000000003 100 100 100
4207303.77938 7543971.27436 17.396 100 100 100
4207303.06938 7543971.57036 18.019 100 100 100
4207304.473379999 7543970.75036 17.894 100 100 100
4207303.291379999 7543970.396360001 15.754 100 100 100
4207302.90738 7543970.99636 15.623000000000001 100 100 100
4207302.41938 7543970.73436 15.209 100 100 100
4207304.27638 7543972.69536 17.009 100 100 100
4207304.11338 7543972.47236 17.368000000000002 100 100 100
4207303.07438 7543972.51636 17.387 100 100 100
4207302.48638 7543970.67036 15.249 100 100 100
4207302.462379999 7543970.87536 15.269 100 100 100
4207303.31338 7543971.79736 15.428 100 100 100
4207303.70938 7543972.15336 17.336 100 100 100
4207303.92638 7543972.37136 16.368000000000002 100 100 100
4207303.314379999 7543969.9753600005 15.866 100 100 100
4207293.39538 7543966.91536 13.428999999999998 100 100 100
4207300.93838 7543966.97236 12.91 100 100 100
4207304.73938 7543967.93236 13.413 100 100 100
4207300.96338 7543966.89936 12.847999999999999 100 100 100
4207304.21038 7543969.20036 12.301000000000002 100 100 100
4207304.80738 7543967.93236 13.401 100 100 100
4207304.73638 7543967.54536 13.651 100 100 100
4207300.33838 7543966.947360001 13.757000000000001 100 100 100
4207301.2353799995 7543966.88936 12.684999999999999 100 100 100
4207304.84638 7543968.74536 12.213999999999999 100 100 100
4207304.67638 7543966.97836 13.36 100 100 100
4207302.63138 7543971.20136 14.501000000000001 100 100 100
4207302.85538 7543971.322360001 14.588000000000001 100 100 100
4207302.04638 7543973.25336 13.864 100 100 100
4207302.22238 7543972.993360001 12.857 100 100 100
4207302.73938 7543972.06736 13.148 100 100 100
4207303.15138 7543971.39736 12.963999999999999 100 100 100
4207302.67038 7543972.34136 13.178999999999998 100 100 100
4207303.31638 7543971.123360001 12.617 100 100 100
4207302.69038 7543972.13136 13.388000000000002 100 100 100
4207302.77538 7543971.36036 13.927 100 100 100
4207303.24738 7543971.7253600005 13.958000000000002 100 100 100
4207302.996379999 7543971.69236 14.11 100 100 100
4207302.18738 7543970.1683600005 14.334 100 100 100
4207303.91938 7543969.80636 11.955000000000002 100 100 100
4207303.96138 7543969.42236 13.702000000000002 100 100 100
4207302.94038 7543971.77336 13.423000000000002 100 100 100
4207302.81338 7543970.22336 13.283000000000001 100 100 100
4207303.030379999 7543971.41136 14.865 100 100 100
4207302.973379999 7543971.62636 14.149999999999999 100 100 100
4207296.15738 7543978.09436 16.744 100 100 100
4207293.71938 7543977.73636 16.917 100 100 100
4207293.649379999 7543977.85736 17.016 100 100 100
4207294.592379999 7543978.39436 17.172 100 100 100
4207295.5763799995 7543977.00336 16.704 100 100 100
4207294.212379999 7543978.39836 16.954 100 100 100
4207294.14338 7543978.18136 17.099 100 100 100
4207295.03438 7543977.515360001 16.637999999999998 100 100 100
4207294.97438 7543978.88836 17.124000000000002 100 100 100
4207294.98638 7543977.92736 16.691000000000003 100 100 100
4207295.59638 7543977.1683600005 16.802 100 100 100
4207293.9113799995 7543975.5603600005 16.871000000000002 100 100 100
4207296.871379999 7543977.851360001 17.35 100 100 100
4207294.19438 7543976.26836 17.222 100 100 100
4207295.00838 7543977.86136 16.718 100 100 100
4207293.71938 7543977.31736 17.067 100 100 100
4207299.96138 7543979.34736 16.936 100 100 100
4207300.962379999 7543979.17936 16.476 100 100 100
4207299.359379999 7543980.37736 16.261000000000003 100 100 100
4207299.47438 7543979.032360001 16.396 100 100 100
4207300.88938 7543979.3103600005 16.713 100 100 100
4207299.314379999 7543980.26136 16.225 100 100 100
4207299.7923799995 7543980.86936 15.870000000000001 100 100 100
4207303.43238 7543982.30236 16.361 100 100 100
4207304.64338 7543981.78536 16.913 100 100 100
4207304.64338 7543981.67636 16.966 100 100 100
4207299.99938 7543981.93436 15.312 100 100 100
4207303.59438 7543981.595360001 16.278 100 100 100
4207304.26138 7543982.66036 16.560000000000002 100 100 100
4207302.45338 7543982.31836 16.887999999999998 100 100 100
4207302.96638 7543983.186360001 16.971 100 100 100
4207304.12438 7543982.49536 16.753 100 100 100
4207304.36738 7543986.94836 17.253 100 100 100
4207304.48838 7543985.80136 17.054000000000002 100 100 100
4207304.479379999 7543986.21636 17.462 100 100 100
4207302.59138 7543983.44936 17.749000000000002 100 100 100
4207303.67138 7543975.453360001 11.84 100 100 100
4207303.52238 7543979.101360001 13.068000000000001 100 100 100
4207302.8263799995 7543976.140360001 12.288 100 100 100
4207303.35838 7543978.22336 12.264 100 100 100
4207303.57338 7543976.28736 12.085 100 100 100
4207303.35638 7543977.4583600005 12.613 100 100 100
4207304.62238 7543978.76336 12.155999999999999 100 100 100
4207303.973379999 7543976.913360001 12.274000000000001 100 100 100
4207304.20738 7543976.05736 12.004999999999999 100 100 100
4207302.39238 7543977.04836 12.338999999999999 100 100 100
4207304.59638 7543977.356360001 12.684999999999999 100 100 100
4207304.55538 7543977.69436 12.372 100 100 100
4207302.939379999 7543976.11936 12.289000000000001 100 100 100
4207303.90038 7543975.50536 11.623999999999999 100 100 100
4207302.77538 7543976.80836 12.436 100 100 100
4207299.450379999 7543986.32036 11.841000000000001 100 100 100
4207300.92738 7543986.487360001 13.873999999999999 100 100 100
4207284.280379999 7543967.22736 9.227 100 100 100
4207284.54438 7543967.1513600005 9.7 100 100 100
4207287.46938 7543971.03636 9.163 100 100 100
4207287.09738 7543970.601360001 8.55 100 100 100
4207292.21938 7543970.12636 9.995999999999999 100 100 100
4207289.44038 7543970.68236 11.463999999999999 100 100 100
4207292.859379999 7543970.623360001 9.391000000000002 100 100 100
4207289.41038 7543971.49536 10.303 100 100 100
4207289.64538 7543970.16636 11.503 100 100 100
4207292.85638 7543970.05636 9.672 100 100 100
4207289.41938 7543970.72236 11.387 100 100 100
4207289.11738 7543971.69636 10.271 100 100 100
4207288.53338 7543971.88036 10.059999999999999 100 100 100
4207290.96438 7543972.20436 10.306000000000001 100 100 100
4207292.73238 7543970.08836 10.367999999999999 100 100 100
4207290.865379999 7543971.4013600005 11.036000000000001 100 100 100
4207291.05438 7543971.65036 10.447 100 100 100
4207290.990379999 7543972.43336 10.059999999999999 100 100 100
4207292.382379999 7543971.11936 9.389 100 100 100
4207289.28338 7543972.43136 9.544 100 100 100
4207290.68238 7543973.05736 9.370999999999999 100 100 100
4207292.56338 7543971.4753600005 9.293 100 100 100
4207291.05038 7543973.31736 8.91 100 100 100
4207292.246379999 7543971.453360001 9.317 100 100 100
4207293.22838 7543969.87536 9.068999999999999 100 100 100
4207291.18838 7543970.70436 10.801000000000002 100 100 100
4207291.69438 7543971.01236 10.085999999999999 100 100 100
4207290.34738 7543970.80136 9.780000000000001 100 100 100
4207291.57438 7543973.29136 8.571000000000002 100 100 100
4207289.251379999 7543972.32336 10.193000000000001 100 100 100
4207282.57938 7543968.55436 8.07 100 100 100
4207283.84738 7543968.0263600005 7.8870000000000005 100 100 100
4207282.96138 7543968.58436 8.146999999999998 100 100 100
4207283.39838 7543967.555360001 7.972000000000001 100 100 100
4207285.155379999 7543968.07936 7.93 100 100 100
4207282.24738 7543968.061360001 7.864999999999998 100 100 100
4207284.48138 7543967.75736 7.8969999999999985 100 100 100
4207285.70338 7543967.362360001 7.710000000000001 100 100 100
4207285.308379999 7543968.856360001 8.039000000000001 100 100 100
4207282.6673799995 7543968.76136 8.103000000000002 100 100 100
4207284.0763799995 7543972.92936 7.792000000000002 100 100 100
4207286.96138 7543973.94936 7.681000000000001 100 100 100
4207283.62838 7543972.06936 7.824000000000002 100 100 100
4207287.41838 7543971.37636 8.013000000000002 100 100 100
4207285.69338 7543974.606360001 7.747 100 100 100
4207284.0703799995 7543974.14936 7.786999999999999 100 100 100
4207282.86338 7543971.23336 7.878 100 100 100
4207283.223379999 7543971.66236 7.844000000000001 100 100 100
4207283.3433799995 7543969.748360001 7.968 100 100 100
4207285.18238 7543972.99736 7.745000000000001 100 100 100
4207286.31738 7543970.88336 7.853999999999999 100 100 100
4207284.83538 7543969.05136 7.942 100 100 100
4207282.32438 7543970.91136 7.82 100 100 100
4207284.22238 7543970.04236 7.914999999999999 100 100 100
4207285.23738 7543970.402360001 7.835000000000001 100 100 100
4207285.48638 7543969.55636 7.997 100 100 100
4207287.46038 7543973.629360001 7.614999999999998 100 100 100
4207285.23338 7543971.396360001 7.811 100 100 100
4207287.189379999 7543973.53936 7.641000000000002 100 100 100
4207286.064379999 7543972.703360001 7.707000000000001 100 100 100
4207287.48338 7543972.981360001 7.707000000000001 100 100 100
4207282.23938 7543969.51436 7.905000000000001 100 100 100
4207284.77238 7543973.52236 7.806000000000001 100 100 100
4207282.61338 7543972.20036 7.815000000000001 100 100 100
4207285.746379999 7543972.9753600005 7.724 100 100 100
4207284.984379999 7543971.73336 7.800999999999998 100 100 100
4207282.9513799995 7543972.06536 7.806999999999999 100 100 100
4207286.62038 7543974.33436 7.695 100 100 100
4207284.38738 7543973.993360001 7.792999999999999 100 100 100
4207284.1953799995 7543971.328360001 7.8580000000000005 100 100 100
4207286.291379999 7543972.20636 7.707000000000001 100 100 100
4207284.69038 7543971.845360001 7.783999999999999 100 100 100
4207283.24438 7543972.09136 7.8210000000000015 100 100 100
4207284.98338 7543972.04736 7.754999999999999 100 100 100
4207285.50838 7543970.22336 7.841000000000001 100 100 100
4207282.20238 7543973.14836 7.789999999999999 100 100 100
4207284.791379999 7543974.37836 7.773 100 100 100
4207287.61738 7543971.487360001 8.265 100 100 100
4207286.74438 7543972.004360001 7.702000000000002 100 100 100
4207287.48638 7543971.55036 7.945 100 100 100
4207283.56138 7543971.66436 7.846 100 100 100
4207282.86938 7543969.03936 8.173000000000002 100 100 100
4207283.08838 7543971.68436 7.830000000000002 100 100 100
4207283.65938 7543969.01336 8.088999999999999 100 100 100
4207289.95238 7543973.71636 8.298000000000002 100 100 100
4207289.058379999 7543974.271360001 7.620000000000001 100 100 100
4207291.33638 7543974.28536 7.695 100 100 100
4207288.02238 7543974.26336 7.577000000000002 100 100 100
4207291.60238 7543974.30836 7.9879999999999995 100 100 100
4207290.2923799995 7543974.11036 8.100000000000001 100 100 100
4207287.97838 7543973.63136 7.591999999999999 100 100 100
4207290.31638 7543974.0603600005 8.050999999999998 100 100 100
4207284.79038 7543979.84836 9.134 100 100 100
4207286.8943799995 7543979.765360001 8.830000000000002 100 100 100
4207284.28738 7543979.993360001 9.559000000000001 100 100 100
4207286.0193799995 7543978.69836 8.827000000000002 100 100 100
4207284.62338 7543979.86636 11.085999999999999 100 100 100
4207286.69438 7543979.26436 8.791 100 100 100
4207285.967379999 7543979.32436 10.459 100 100 100
4207286.62838 7543979.987360001 8.494 100 100 100
4207285.02338 7543979.05736 10.296 100 100 100
4207284.9453799995 7543979.58036 9.446000000000002 100 100 100
4207284.58438 7543979.7933600005 10.745000000000001 100 100 100
4207287.155379999 7543979.4353600005 9.512 100 100 100
4207285.73238 7543979.12536 9.664000000000001 100 100 100
4207284.76038 7543979.57636 9.699000000000002 100 100 100
4207284.04838 7543979.55036 9.125 100 100 100
4207284.49938 7543979.92836 9.016000000000002 100 100 100
4207284.75538 7543977.62736 10.52 100 100 100
4207284.55638 7543980.09336 8.225999999999999 100 100 100
4207286.36838 7543979.20036 9.45 100 100 100
4207284.9683799995 7543977.11436 10.027000000000001 100 100 100
4207285.22538 7543978.94836 10.338000000000001 100 100 100
4207284.29338 7543979.896360001 9.193999999999999 100 100 100
4207285.734379999 7543979.55836 9.411999999999999 100 100 100
4207285.382379999 7543978.62436 10.524000000000001 100 100 100
4207283.17538 7543982.652360001 10.629000000000001 100 100 100
4207283.38938 7543982.59436 11.329 100 100 100
4207283.12438 7543982.43336 11.001999999999999 100 100 100
4207282.45838 7543982.00236 10.451 100 100 100
4207284.02238 7543983.12136 11.078 100 100 100
4207283.06938 7543982.59436 10.186 100 100 100
4207282.84038 7543981.63636 10.690000000000001 100 100 100
4207287.75938 7543979.53036 9.817 100 100 100
4207291.1673799995 7543979.60836 8.337 100 100 100
4207289.02838 7543978.92836 9.597000000000001 100 100 100
4207288.5763799995 7543980.5263600005 9.213000000000001 100 100 100
4207290.22638 7543975.737360001 8.947 100 100 100
4207291.92738 7543976.03336 8.302 100 100 100
4207290.74138 7543976.19436 10.408999999999999 100 100 100
4207288.50438 7543978.59636 9.995999999999999 100 100 100
4207291.3203799995 7543985.58736 8.379999999999999 100 100 100
4207287.91338 7543980.70136 9.738 100 100 100
4207290.99138 7543984.27536 9.565000000000001 100 100 100
4207291.05538 7543984.39836 9.701 100 100 100
4207288.092379999 7543980.77436 9.800999999999998 100 100 100
4207284.76538 7543980.37536 7.777000000000001 100 100 100
4207284.08938 7543975.03636 7.829000000000001 100 100 100
4207284.45238 7543974.71836 7.788 100 100 100
4207282.93738 7543975.23436 7.8309999999999995 100 100 100
4207285.35338 7543975.05636 7.721 100 100 100
4207283.02538 7543975.84236 7.791 100 100 100
4207283.48038 7543974.71836 7.846 100 100 100
4207285.15138 7543974.873360001 7.712 100 100 100
4207282.73238 7543975.93436 7.800000000000001 100 100 100
4207284.22238 7543975.46336 7.7940000000000005 100 100 100
4207286.655379999 7543980.31736 8.105 100 100 100
4207284.700379999 7543974.69436 7.763999999999999 100 100 100
4207286.38538 7543980.35736 8.039000000000001 100 100 100
4207286.837379999 7543980.33536 8.017 100 100 100
4207283.00838 7543974.71236 7.792999999999999 100 100 100
4207286.86738 7543974.805360001 7.634 100 100 100
4207285.80138 7543976.20236 7.606000000000002 100 100 100
4207283.16238 7543986.00236 7.756 100 100 100
4207285.115379999 7543982.84336 7.780999999999999 100 100 100
4207284.22438 7543985.640360001 7.707000000000001 100 100 100
4207285.88938 7543980.48836 7.995000000000001 100 100 100
4207284.15238 7543981.47736 7.734000000000002 100 100 100
4207285.59938 7543980.51636 7.789999999999999 100 100 100
4207285.85738 7543983.1683600005 7.8530000000000015 100 100 100
4207284.20738 7543984.44036 7.699000000000002 100 100 100
4207287.00538 7543984.40036 7.638000000000002 100 100 100
4207286.92438 7543981.98636 7.722999999999999 100 100 100
4207284.13638 7543985.14536 7.745000000000001 100 100 100
4207285.07838 7543986.01436 7.8039999999999985 100 100 100
4207283.36438 7543981.15636 7.699000000000002 100 100 100
4207284.34638 7543983.46836 7.724 100 100 100
4207286.61438 7543980.85236 7.7109999999999985 100 100 100
4207287.456379999 7543984.33736 7.655000000000001 100 100 100
4207283.65438 7543982.038360001 7.692 100 100 100
4207285.48738 7543980.55436 7.713000000000001 100 100 100
4207287.06338 7543980.75236 7.843 100 100 100
4207285.85538 7543983.86036 7.722000000000001 100 100 100
4207283.03738 7543983.75536 7.672000000000001 100 100 100
4207287.382379999 7543986.14136 7.597000000000001 100 100 100
4207283.2353799995 7543984.71036 7.7379999999999995 100 100 100
4207286.47138 7543982.61636 7.692 100 100 100
4207286.467379999 7543983.72336 7.678000000000001 100 100 100
4207286.51838 7543982.163360001 7.690999999999999 100 100 100
4207283.83838 7543980.97936 7.744 100 100 100
4207285.19438 7543980.77436 7.655000000000001 100 100 100
4207283.86138 7543980.71236 7.802 100 100 100
4207283.02638 7543980.64736 7.861999999999998 100 100 100
4207283.0933799995 7543980.60336 7.888999999999999 100 100 100
4207283.0703799995 7543980.5833600005 7.914999999999999 100 100 100
4207282.27538 7543981.33236 8.006 100 100 100
4207283.43538 7543985.322360001 7.748999999999999 100 100 100
4207284.20238 7543985.436360001 7.712 100 100 100
4207285.34738 7543981.79736 7.693999999999999 100 100 100
4207284.86338 7543984.2593600005 7.681000000000001 100 100 100
4207286.87438 7543983.31736 7.677 100 100 100
4207285.46338 7543986.09936 7.7280000000000015 100 100 100
4207283.36938 7543985.12036 7.754000000000001 100 100 100
4207287.030379999 7543983.88036 7.638999999999999 100 100 100
4207285.71538 7543980.78636 7.4929999999999986 100 100 100
4207283.763379999 7543982.78536 7.687000000000001 100 100 100
4207285.67138 7543985.08036 7.702999999999999 100 100 100
4207287.621379999 7543977.08636 7.821999999999999 100 100 100
4207291.25338 7543976.83636 7.911000000000001 100 100 100
4207291.49738 7543978.453360001 7.745000000000001 100 100 100
4207287.63638 7543974.98236 7.545000000000002 100 100 100
4207291.58838 7543977.89536 7.823 100 100 100
4207288.59638 7543980.19036 8.106000000000002 100 100 100
4207291.365379999 7543976.66536 8.030000000000001 100 100 100
4207291.17538 7543979.385360001 7.821999999999999 100 100 100
4207289.149379999 7543978.67236 7.766000000000002 100 100 100
4207289.84138 7543980.4183600005 7.777000000000001 100 100 100
4207290.916379999 7543977.00536 7.765000000000001 100 100 100
4207288.7353799995 7543976.29736 7.504999999999999 100 100 100
4207289.2923799995 7543977.35436 7.698 100 100 100
4207290.490379999 7543976.32736 7.818000000000001 100 100 100
4207290.86938 7543977.947360001 7.666 100 100 100
4207289.41438 7543980.42836 7.648 100 100 100
4207290.38538 7543979.96536 7.753 100 100 100
4207291.67538 7543978.57636 7.856999999999999 100 100 100
4207290.28438 7543975.45536 8.244 100 100 100
4207289.07338 7543976.48236 7.553000000000001 100 100 100
4207288.10238 7543978.34036 7.058 100 100 100
4207289.23138 7543974.99636 7.920000000000002 100 100 100
4207287.82938 7543976.578360001 7.670999999999999 100 100 100
4207289.63938 7543974.96636 7.795999999999999 100 100 100
4207288.11638 7543977.33736 7.806000000000001 100 100 100
4207290.14738 7543977.61136 7.734000000000002 100 100 100
4207289.57138 7543980.21036 7.73 100 100 100
4207291.59038 7543976.95536 7.972999999999999 100 100 100
4207288.19338 7543980.28136 7.859999999999999 100 100 100
4207290.632379999 7543976.09736 7.457000000000001 100 100 100
4207291.40738 7543978.27436 7.7620000000000005 100 100 100
4207289.65838 7543981.112360001 7.6960000000000015 100 100 100
4207289.138379999 7543981.53736 7.643999999999998 100 100 100
4207289.45938 7543985.89936 7.550999999999998 100 100 100
4207288.33538 7543984.77036 7.649000000000001 100 100 100
4207289.58038 7543983.91036 7.574999999999999 100 100 100
4207289.098379999 7543985.7423600005 7.603999999999999 100 100 100
4207288.0763799995 7543981.60736 7.7379999999999995 100 100 100
4207290.31838 7543985.47936 6.209 100 100 100
4207289.08838 7543982.6683600005 7.654 100 100 100
4207289.39538 7543984.08636 7.824000000000002 100 100 100
4207287.9453799995 7543980.4583600005 7.817 100 100 100
4207288.13138 7543985.21736 7.5859999999999985 100 100 100
4207290.90938 7543982.527360001 8.059999999999999 100 100 100
4207288.405379999 7543984.51836 7.605 100 100 100
4207288.65638 7543983.55036 7.655000000000001 100 100 100
4207288.12838 7543980.561360001 7.675999999999998 100 100 100
4207290.46338 7543983.14736 7.611999999999998 100 100 100
4207291.10638 7543985.66236 7.629000000000001 100 100 100
4207288.31138 7543985.77336 7.472000000000001 100 100 100
4207289.16238 7543981.40036 7.648 100 100 100
4207288.28138 7543981.646360001 7.649999999999999 100 100 100
4207288.251379999 7543983.63336 7.588000000000001 100 100 100
4207293.81338 7543969.6853600005 9.216999999999999 100 100 100
4207301.39338 7543967.09436 11.273 100 100 100
4207303.44138 7543968.4353600005 11.238 100 100 100
4207301.34138 7543967.618360001 11.602 100 100 100
4207303.19038 7543970.646360001 9.445 100 100 100
4207302.234379999 7543971.18936 11.202000000000002 100 100 100
4207303.28338 7543972.66536 11.526 100 100 100
4207302.11338 7543969.595360001 10.797 100 100 100
4207303.0533799995 7543972.6003600005 10.398 100 100 100
4207303.49138 7543973.726360001 10.892 100 100 100
4207304.23938 7543971.231360001 11.350999999999999 100 100 100
4207303.03738 7543973.89136 11.013000000000002 100 100 100
4207304.479379999 7543974.83536 10.857 100 100 100
4207303.456379999 7543972.92236 10.456 100 100 100
4207303.82138 7543974.62836 11.138000000000002 100 100 100
4207304.371379999 7543971.33236 11.489 100 100 100
4207302.81738 7543970.39236 10.248000000000001 100 100 100
4207303.75038 7543971.26236 9.484000000000002 100 100 100
4207304.030379999 7543969.87036 10.748999999999999 100 100 100
4207301.973379999 7543969.37136 9.698 100 100 100
4207303.66838 7543970.56336 9.234000000000002 100 100 100
4207302.75438 7543972.61036 7.962 100 100 100
4207304.91538 7543972.15936 8.440000000000001 100 100 100
4207303.77638 7543975.49736 10.952000000000002 100 100 100
4207304.530379999 7543976.84636 9.933 100 100 100
4207304.21438 7543976.02536 10.167000000000002 100 100 100
4207301.98238 7543984.15836 9.257000000000001 100 100 100
4207303.65938 7543983.51236 10.436 100 100 100
4207302.33538 7543983.84436 9.850000000000001 100 100 100
4207301.14238 7543984.07636 8.241 100 100 100
4207299.86838 7543986.226360001 8.32 100 100 100
4207301.13638 7543985.18336 11.091999999999999 100 100 100
4207300.12938 7543986.010360001 9.012 100 100 100
4207302.86638 7543983.69936 10.553999999999998 100 100 100
4207302.45238 7543983.38936 8.353000000000002 100 100 100
4207302.68538 7543983.00336 8.047 100 100 100
4207304.0763799995 7543985.1913600005 7.899000000000001 100 100 100
4207301.59538 7543984.33536 8.059000000000001 100 100 100
4207303.56138 7543984.43836 7.8260000000000005 100 100 100
4207300.42538 7543985.22736 7.675999999999998 100 100 100
4207300.08838 7543984.75636 7.736000000000001 100 100 100
4207302.342379999 7543985.85936 7.5440000000000005 100 100 100
4207303.3603799995 7543986.06736 7.265000000000001 100 100 100
4207301.64638 7543985.08236 7.4830000000000005 100 100 100
4207303.58538 7543984.65536 7.707000000000001 100 100 100
4207291.46338 7543998.11936 16.948 100 100 100
4207289.2923799995 7543996.57136 14.933 100 100 100
4207292.58638 7543993.69936 15.668000000000001 100 100 100
4207292.939379999 7543994.72136 14.541 100 100 100
4207291.45438 7543995.4243600005 15.505 100 100 100
4207291.55738 7543995.28736 16.054000000000002 100 100 100
4207292.61738 7543995.34336 16.122 100 100 100
4207292.4173799995 7543994.63736 16.1 100 100 100
4207286.12338 7543998.27536 13.758 100 100 100
4207287.3433799995 7543994.04736 12.018 100 100 100
4207287.14038 7543998.22436 13.638000000000002 100 100 100
4207287.33638 7543996.55336 13.097000000000001 100 100 100
4207287.03438 7543997.28036 13.420000000000002 100 100 100
4207292.746379999 7543995.95736 13.571000000000002 100 100 100
4207289.01638 7543995.00736 12.916 100 100 100
4207290.19038 7543997.67936 13.465 100 100 100
4207289.92438 7543997.12536 13.325 100 100 100
4207291.12238 7543996.879360001 13.286999999999999 100 100 100
4207290.55538 7543996.55736 13.558 100 100 100
4207288.564379999 7543995.64936 12.758 100 100 100
4207291.121379999 7543996.74736 13.366 100 100 100
4207292.52038 7543994.67536 12.536999999999999 100 100 100
4207292.3093799995 7543995.08436 14.301000000000002 100 100 100
4207287.77938 7543997.86036 13.283000000000001 100 100 100
4207289.490379999 7543995.25536 11.440999999999999 100 100 100
4207290.77938 7543997.1853600005 13.455000000000002 100 100 100
4207290.25838 7543994.01136 11.704 100 100 100
4207288.541379999 7543995.56736 12.873999999999999 100 100 100
4207292.67738 7543996.072360001 13.594000000000001 100 100 100
4207289.85738 7543995.35536 12.392 100 100 100
4207291.12338 7543994.0833600005 12.568999999999999 100 100 100
4207290.30738 7543994.19436 11.434000000000001 100 100 100
4207290.34638 7543995.45636 14.231000000000002 100 100 100
4207289.70538 7543997.63036 12.855 100 100 100
4207289.746379999 7543999.32136 16.782 100 100 100
4207286.73038 7543998.41536 13.771 100 100 100
4207286.14038 7543998.65336 13.952000000000002 100 100 100
4207286.92938 7543999.57136 13.780999999999999 100 100 100
4207286.06738 7543999.36436 14.099 100 100 100
4207286.479379999 7543999.71836 13.661000000000001 100 100 100
4207286.20438 7543999.072360001 14.107 100 100 100
4207285.89238 7543998.60536 13.952000000000002 100 100 100
4207287.53838 7543999.97236 13.686 100 100 100
4207288.01538 7543999.53536 13.572 100 100 100
4207288.20238 7543999.0603600005 13.268 100 100 100
4207292.66838 7543999.63936 13.213999999999999 100 100 100
4207287.88538 7543999.46836 13.294 100 100 100
4207288.49238 7543999.41236 13.426000000000002 100 100 100
4207295.15338 7543991.2593600005 15.298 100 100 100
4207296.54038 7543991.54636 14.537 100 100 100
4207296.34438 7543991.37136 15.504 100 100 100
4207296.6843799995 7543994.02536 16.137999999999998 100 100 100
4207296.80538 7543992.96836 14.491 100 100 100
4207296.59438 7543993.99636 16.075000000000003 100 100 100
4207294.69838 7543994.48636 14.632 100 100 100
4207294.405379999 7543994.07936 16.073999999999998 100 100 100
4207294.99138 7543993.47736 17.613 100 100 100
4207294.63338 7543998.30136 14.804 100 100 100
4207296.95338 7543993.61036 16.314 100 100 100
4207296.90238 7543993.94836 16.597 100 100 100
4207296.638379999 7543994.35736 16.066000000000003 100 100 100
4207294.36138 7543996.22136 15.425 100 100 100
4207295.74138 7543997.34236 14.923 100 100 100
4207296.73838 7543993.82336 15.585 100 100 100
4207295.26038 7543995.20636 14.529 100 100 100
4207294.04038 7543995.67536 14.536 100 100 100
4207295.8093799995 7543997.407360001 14.883000000000001 100 100 100
4207295.14238 7543994.629360001 16.432000000000002 100 100 100
4207296.734379999 7543993.39736 17.358 100 100 100
4207296.47738 7543994.11136 14.955 100 100 100
4207293.18738 7543994.40536 15.971 100 100 100
4207296.66438 7543993.89836 15.976 100 100 100
4207293.40238 7543995.96536 16.225 100 100 100
4207296.73738 7543993.82736 15.623000000000001 100 100 100
4207296.90238 7543993.41536 16.725 100 100 100
4207294.01238 7543995.41036 16.343 100 100 100
4207294.52138 7543994.51636 14.440999999999999 100 100 100
4207296.96338 7543994.44536 16.852 100 100 100
4207295.82738 7543994.63736 14.482 100 100 100
4207294.85338 7543994.64736 16.088 100 100 100
4207296.89338 7543993.70536 15.805 100 100 100
4207301.14038 7543990.55236 14.928 100 100 100
4207304.575379999 7543988.16436 16.59 100 100 100
4207300.90638 7543990.68336 15.444 100 100 100
4207300.80738 7543990.58236 17.335 100 100 100
4207301.40638 7543990.39536 16.658 100 100 100
4207301.371379999 7543990.52036 17.365000000000002 100 100 100
4207301.439379999 7543990.38336 17.369 100 100 100
4207300.69438 7543990.6343600005 14.531 100 100 100
4207301.48638 7543990.15336 17.311 100 100 100
4207304.439379999 7543987.919360001 16.659 100 100 100
4207304.72038 7543987.99136 14.681000000000001 100 100 100
4207304.66438 7543988.04136 15.313 100 100 100
4207301.24138 7543990.32036 15.695 100 100 100
4207304.58438 7543987.31936 17.651 100 100 100
4207300.48338 7543990.51836 15.09 100 100 100
4207304.39238 7543989.76936 16.296 100 100 100
4207302.23738 7543988.88736 15.85 100 100 100
4207304.69338 7543988.00336 17.711 100 100 100
4207303.69738 7543997.65436 15.299 100 100 100
4207303.89638 7543995.5263600005 16.151 100 100 100
4207303.68838 7543993.19936 17.07 100 100 100
4207303.70838 7543993.407360001 17.141 100 100 100
4207296.52238 7543992.42836 13.983 100 100 100
4207296.76738 7543991.96936 11.573 100 100 100
4207294.30538 7543997.48336 13.047 100 100 100
4207294.00938 7543998.00536 13.084 100 100 100
4207296.70238 7543993.43136 12.335999999999999 100 100 100
4207297.84638 7543993.2763600005 11.445 100 100 100
4207294.90738 7543994.85836 14.155000000000001 100 100 100
4207296.86238 7543993.17736 13.7 100 100 100
4207296.21538 7543994.52036 11.533000000000001 100 100 100
4207296.51038 7543993.49136 11.674 100 100 100
4207296.19238 7543995.498360001 11.293 100 100 100
4207294.05538 7543993.970360001 12.702000000000002 100 100 100
4207296.89838 7543993.17736 12.838000000000001 100 100 100
4207296.88438 7543993.20536 13.75 100 100 100
4207296.439379999 7543993.53136 11.876000000000001 100 100 100
4207295.48238 7543996.606360001 11.629999999999999 100 100 100
4207295.62538 7543995.10436 12.936 100 100 100
4207295.02638 7543998.089360001 11.515 100 100 100
4207295.09738 7543996.49736 13.139 100 100 100
4207295.98638 7543995.35936 11.549 100 100 100
4207296.16838 7543995.07436 12.825 100 100 100
4207296.72738 7543993.64436 13.585999999999999 100 100 100
4207294.91438 7543997.02236 11.756 100 100 100
4207296.229379999 7543996.4183600005 11.498999999999999 100 100 100
4207296.8773799995 7543993.17336 12.774000000000001 100 100 100
4207296.2863799995 7543994.72136 11.210999999999999 100 100 100
4207295.047379999 7543995.61336 13.681000000000001 100 100 100
4207296.0533799995 7543994.55636 11.709 100 100 100
4207294.712379999 7543996.85736 13.116 100 100 100
4207296.55238 7543995.5433600005 11.280999999999999 100 100 100
4207295.94438 7543993.890360001 13.030999999999999 100 100 100
4207296.88538 7543993.135360001 12.293 100 100 100
4207294.95838 7543997.91636 11.607 100 100 100
4207296.19038 7543994.635360001 11.568000000000001 100 100 100
4207300.58638 7543990.37736 11.582 100 100 100
4207299.99438 7543990.248360001 11.975000000000001 100 100 100
4207302.73738 7543990.2763600005 13.904 100 100 100
4207302.20338 7543990.92836 13.314 100 100 100
4207304.5423799995 7543988.5833600005 13.017 100 100 100
4207300.04438 7543990.288360001 11.619 100 100 100
4207300.9853799995 7543989.36636 13.663 100 100 100
4207301.17338 7543990.45736 14.283999999999999 100 100 100
4207300.31338 7543990.55836 14.466999999999999 100 100 100
4207302.24738 7543989.64436 13.663 100 100 100
4207300.0533799995 7543991.61936 12.145 100 100 100
4207302.58938 7543989.29636 13.547 100 100 100
4207299.263379999 7543989.78336 11.273 100 100 100
4207300.52238 7543990.50836 14.102 100 100 100
4207300.34638 7543991.4013600005 12.215 100 100 100
4207300.43538 7543991.67136 12.196000000000002 100 100 100
4207300.74138 7543990.41536 11.747 100 100 100
4207303.717379999 7543993.9583600005 12.334 100 100 100
4207303.723379999 7543993.18936 13.495000000000001 100 100 100
4207294.41338 7543998.430360001 14.445 100 100 100
4207293.78438 7543999.89536 15.268 100 100 100
4207294.52738 7543999.19336 15.504 100 100 100
4207293.751379999 7543999.70036 14.511 100 100 100
4207303.57938 7543998.78636 15.321 100 100 100
4207303.96538 7543999.30736 15.031 100 100 100
4207294.64038 7543998.40936 11.568000000000001 100 100 100
4207294.46338 7543999.43436 11.085 100 100 100
4207294.030379999 7543998.49436 12.983 100 100 100
4207294.19838 7543998.623360001 13.729 100 100 100
4207294.32238 7543998.92336 11.516000000000002 100 100 100
4207294.19838 7543999.97436 13.378 100 100 100
4207294.25538 7543999.77236 11.355 100 100 100
4207294.57338 7543999.88936 11.113 100 100 100
4207303.67738 7543998.913360001 12.047 100 100 100
4207284.19638 7543996.67236 7.866 100 100 100
4207282.854379999 7543994.498360001 9.053999999999998 100 100 100
4207282.9283799995 7543993.362360001 8.994 100 100 100
4207283.24338 7543994.47436 8.739999999999998 100 100 100
4207283.10338 7543997.00236 8.372 100 100 100
4207284.61738 7543997.72736 8.007000000000001 100 100 100
4207282.64638 7543996.00636 8.965 100 100 100
4207286.04338 7543996.75736 8.0 100 100 100
4207286.92538 7543996.04036 8.036000000000001 100 100 100
4207283.42738 7543995.76836 8.201 100 100 100
4207282.8263799995 7543996.13736 8.911999999999999 100 100 100
4207283.15238 7543992.73636 7.920000000000002 100 100 100
4207282.79538 7543992.95036 8.940000000000001 100 100 100
4207284.087379999 7543995.8103600005 7.8359999999999985 100 100 100
4207286.53338 7543997.49736 8.161999999999999 100 100 100
4207284.490379999 7543996.26736 7.878 100 100 100
4207283.081379999 7543994.78036 8.896 100 100 100
4207287.22038 7543995.08036 8.187999999999999 100 100 100
4207285.79838 7543995.59136 8.129000000000001 100 100 100
4207282.51138 7543995.60336 9.038 100 100 100
4207283.36338 7543995.1743600005 8.126999999999999 100 100 100
4207283.26238 7543995.754360001 8.619 100 100 100
4207282.73638 7543997.02836 8.712 100 100 100
4207283.75038 7543995.39836 7.806000000000001 100 100 100
4207283.939379999 7543993.47936 7.841999999999999 100 100 100
4207286.92438 7543996.15536 8.045000000000002 100 100 100
4207285.93838 7543994.86036 8.047 100 100 100
4207285.21138 7543995.45636 8.18 100 100 100
4207292.60638 7543986.38936 8.164000000000001 100 100 100
4207289.791379999 7543991.04736 7.971 100 100 100
4207288.82838 7543997.71536 8.524000000000001 100 100 100
4207290.35738 7543995.61336 9.332 100 100 100
4207292.47538 7543994.26636 9.934000000000001 100 100 100
4207290.14838 7543996.04236 9.625 100 100 100
4207291.89138 7543996.3103600005 9.196000000000002 100 100 100
4207291.70838 7543995.05736 9.670000000000002 100 100 100
4207290.0933799995 7543996.08836 8.761 100 100 100
4207291.14338 7543995.54736 9.617 100 100 100
4207290.081379999 7543997.68336 7.757999999999999 100 100 100
4207289.39738 7543996.14136 8.604 100 100 100
4207287.92038 7543993.70136 8.466000000000001 100 100 100
4207292.0703799995 7543994.93936 9.585999999999999 100 100 100
4207289.91838 7543996.15336 9.899999999999999 100 100 100
4207288.01438 7543997.49736 8.665 100 100 100
4207286.8943799995 7543989.21936 7.620000000000001 100 100 100
4207284.8603799995 7543989.93836 7.655000000000001 100 100 100
4207285.50838 7543991.589360001 7.6179999999999986 100 100 100
4207283.67638 7543986.930360001 7.748999999999999 100 100 100
4207285.16338 7543987.60936 7.675999999999998 100 100 100
4207283.34638 7543990.16736 7.756 100 100 100
4207284.92038 7543991.68136 7.663 100 100 100
4207283.94638 7543987.04736 7.785 100 100 100
4207284.10238 7543987.25636 7.832000000000001 100 100 100
4207286.01638 7543989.07636 7.5809999999999995 100 100 100
4207283.041379999 7543987.27436 7.8260000000000005 100 100 100
4207285.23138 7543987.94536 7.6179999999999986 100 100 100
4207286.78738 7543987.70536 7.657 100 100 100
4207284.85138 7543986.34836 7.7570000000000014 100 100 100
4207282.712379999 7543990.731360001 7.777000000000001 100 100 100
4207284.48738 7543987.16036 7.747 100 100 100
4207284.18638 7543989.19336 7.721 100 100 100
4207285.87938 7543989.41536 7.585000000000001 100 100 100
4207286.09038 7543987.5603600005 7.568000000000001 100 100 100
4207284.47038 7543991.21236 7.748999999999999 100 100 100
4207284.58438 7543991.0493600005 7.690000000000001 100 100 100
4207287.12838 7543987.41136 7.628 100 100 100
4207284.49538 7543990.62036 7.713000000000001 100 100 100
4207285.78538 7543989.93836 7.609999999999999 100 100 100
4207284.73638 7543987.20636 7.734999999999999 100 100 100
4207287.19138 7543988.2933600005 7.619 100 100 100
4207282.77138 7543987.13836 7.8530000000000015 100 100 100
4207284.064379999 7543991.13836 7.710000000000001 100 100 100
4207282.50538 7543986.34436 7.832999999999998 100 100 100
4207282.615379999 7543986.86436 7.8210000000000015 100 100 100
4207284.88438 7543989.75736 7.673000000000002 100 100 100
4207286.376379999 7543988.89936 7.6129999999999995 100 100 100
4207285.41538 7543986.86436 7.683 100 100 100
4207282.35638 7543989.41736 7.795000000000002 100 100 100
4207282.8033799995 7543990.34736 7.786999999999999 100 100 100
4207286.02238 7543987.629360001 7.591999999999999 100 100 100
4207285.66538 7543986.32636 7.7109999999999985 100 100 100
4207284.36938 7543988.180360001 7.7719999999999985 100 100 100
4207284.126379999 7543987.20636 7.782 100 100 100
4207283.74538 7543986.79536 7.739999999999998 100 100 100
4207286.29938 7543991.45236 7.562000000000001 100 100 100
4207284.77938 7543987.50236 7.753 100 100 100
4207285.376379999 7543996.08636 7.5440000000000005 100 100 100
4207286.899379999 7543993.38036 7.5809999999999995 100 100 100
4207283.155379999 7543992.231360001 7.843 100 100 100
4207286.87238 7543994.46636 7.591999999999999 100 100 100
4207286.73838 7543994.260360001 7.545999999999999 100 100 100
4207284.03138 7543993.27236 7.797000000000001 100 100 100
4207284.73038 7543993.47336 7.731999999999999 100 100 100
4207286.85338 7543993.62836 7.574999999999999 100 100 100
4207286.19438 7543994.22236 7.683 100 100 100
4207286.60238 7543994.19436 7.585000000000001 100 100 100
4207283.53338 7543993.58836 7.812000000000001 100 100 100
4207284.53238 7543992.09836 7.815999999999999 100 100 100
4207289.9513799995 7543987.89336 7.300999999999998 100 100 100
4207288.51038 7543986.59036 7.4780000000000015 100 100 100
4207288.11638 7543989.3163600005 7.344999999999999 100 100 100
4207292.172379999 7543986.70536 7.024999999999999 100 100 100
4207289.7353799995 7543990.52236 7.350000000000001 100 100 100
4207288.91338 7543987.80036 7.324000000000002 100 100 100
4207288.00638 7543988.06236 7.541 100 100 100
4207287.58338 7543987.17036 7.434000000000001 100 100 100
4207287.74538 7543986.447360001 7.427 100 100 100
4207289.30438 7543989.55736 7.763999999999999 100 100 100
4207288.59538 7543988.12036 7.364999999999998 100 100 100
4207289.22638 7543988.436360001 7.335000000000001 100 100 100
4207290.67738 7543987.101360001 7.248999999999999 100 100 100
4207287.6673799995 7543988.311360001 7.545000000000002 100 100 100
4207289.36738 7543988.74636 6.948 100 100 100
4207290.23838 7543989.58436 7.198 100 100 100
4207287.58838 7543990.69336 7.6129999999999995 100 100 100
4207291.66438 7543997.76136 7.510999999999999 100 100 100
4207292.36938 7543995.63136 7.719000000000001 100 100 100
4207291.89338 7543995.88336 7.786999999999999 100 100 100
4207290.36138 7543995.981360001 7.661999999999999 100 100 100
4207290.72138 7543996.78136 7.466999999999999 100 100 100
4207290.6783799995 7543996.06236 7.535 100 100 100
4207290.02338 7543996.21736 7.539999999999999 100 100 100
4207289.72438 7543997.044360001 7.6960000000000015 100 100 100
4207291.08338 7543996.66436 7.408000000000001 100 100 100
4207287.882379999 7543992.43836 7.052 100 100 100
4207290.99338 7543996.845360001 7.416 100 100 100
4207286.04038 7543998.14436 7.776 100 100 100
4207285.740379999 7543999.92936 7.756 100 100 100
4207283.35338 7543998.78636 7.745999999999999 100 100 100
4207285.8093799995 7543999.76836 7.722000000000001 100 100 100
4207283.53238 7543999.34836 7.681999999999999 100 100 100
4207285.76538 7543999.29536 7.745999999999999 100 100 100
4207287.43838 7543998.2423600005 7.806000000000001 100 100 100
4207283.62238 7543997.99536 8.021 100 100 100
4207282.51538 7543999.998360001 7.661000000000001 100 100 100
4207284.64138 7543998.45236 7.736000000000001 100 100 100
4207285.99138 7543999.1343600005 7.713000000000001 100 100 100
4207282.44838 7543998.42136 8.017 100 100 100
4207283.78238 7543998.63336 7.777000000000001 100 100 100
4207282.58538 7543998.30136 7.943999999999999 100 100 100
4207284.12038 7543998.45636 7.821999999999999 100 100 100
4207287.68638 7543998.66736 7.734000000000002 100 100 100
4207287.63738 7543999.68236 7.6960000000000015 100 100 100
4207286.85138 7543998.79636 7.687999999999999 100 100 100
4207283.82438 7543999.95636 7.631 100 100 100
4207283.825379999 7543999.57336 7.652999999999999 100 100 100
4207284.27538 7543999.913360001 7.634 100 100 100
4207290.558379999 7543997.981360001 7.486999999999998 100 100 100
4207291.979379999 7543997.94236 7.4830000000000005 100 100 100
4207288.99938 7543998.27236 7.535 100 100 100
4207287.61738 7543999.29536 7.667000000000002 100 100 100
4207288.53938 7543999.77436 7.648 100 100 100
4207288.90838 7543998.45436 7.555 100 100 100
4207289.88038 7543998.13636 7.478999999999999 100 100 100
4207289.0193799995 7543998.88236 7.5070000000000014 100 100 100
4207288.59038 7543998.93136 7.580000000000002 100 100 100
4207288.700379999 7543999.25136 7.623000000000001 100 100 100
4207290.64238 7543999.271360001 7.4929999999999986 100 100 100
4207296.34638 7543991.26936 9.902000000000001 100 100 100
4207297.16038 7543987.788360001 9.32 100 100 100
4207296.69038 7543988.20936 8.952000000000002 100 100 100
4207298.88338 7543990.69536 9.372 100 100 100
4207296.35038 7543990.96536 9.77 100 100 100
4207296.57938 7543989.37636 9.975000000000001 100 100 100
4207297.76038 7543988.83136 9.614 100 100 100
4207297.74738 7543992.07036 8.203 100 100 100
4207296.60638 7543991.52236 10.492999999999999 100 100 100
4207296.90438 7543990.17536 9.184000000000001 100 100 100
4207295.83538 7543996.85336 9.267 100 100 100
4207296.98238 7543995.56936 8.442 100 100 100
4207297.51238 7543997.51236 8.663 100 100 100
4207297.67338 7543997.36136 8.465 100 100 100
4207298.90838 7543993.43136 9.913 100 100 100
4207296.94238 7543992.754360001 10.325 100 100 100
4207297.774379999 7543997.57636 9.158000000000001 100 100 100
4207297.21638 7543997.50136 8.802 100 100 100
4207298.24238 7543993.11536 7.963999999999999 100 100 100
4207296.10838 7543993.82936 9.939 100 100 100
4207296.97038 7543995.05736 7.948 100 100 100
4207296.740379999 7543997.06336 9.026 100 100 100
4207296.56038 7543995.822360001 9.36 100 100 100
4207296.081379999 7543996.97236 9.341000000000001 100 100 100
4207296.85638 7543993.11136 8.553 100 100 100
4207296.40738 7543993.40536 8.29 100 100 100
4207297.17338 7543997.06736 8.774000000000001 100 100 100
4207296.4513799995 7543995.24736 10.692 100 100 100
4207296.79038 7543996.044360001 9.013000000000002 100 100 100
4207297.1953799995 7543996.94236 8.891000000000002 100 100 100
4207295.587379999 7543997.27436 9.178999999999998 100 100 100
4207296.31338 7543994.08736 9.756 100 100 100
4207296.1103799995 7543994.79236 9.535 100 100 100
4207296.85738 7543994.54036 10.876000000000001 100 100 100
4207296.30438 7543994.68736 10.184999999999999 100 100 100
4207297.02138 7543993.095360001 9.492999999999999 100 100 100
4207296.86338 7543993.09736 9.517 100 100 100
4207297.70838 7543996.68836 7.949000000000002 100 100 100
4207300.55038 7543990.38936 8.285 100 100 100
4207302.04038 7543991.57736 10.646999999999998 100 100 100
4207302.604379999 7543992.22336 10.495000000000001 100 100 100
4207304.3433799995 7543988.15036 8.664000000000001 100 100 100
4207301.73138 7543990.52836 10.556999999999999 100 100 100
4207304.4113799995 7543987.88636 8.747 100 100 100
4207300.9683799995 7543990.83236 10.152999999999999 100 100 100
4207303.01138 7543988.65636 10.001000000000001 100 100 100
4207303.837379999 7543993.66036 10.553999999999998 100 100 100
4207303.51738 7543993.74936 7.975999999999999 100 100 100
4207303.83238 7543993.43736 10.902000000000001 100 100 100
4207303.76238 7543993.811360001 8.178999999999998 100 100 100
4207304.01738 7543997.75736 10.847000000000001 100 100 100
4207304.55738 7543996.44036 9.905999999999999 100 100 100
4207303.337379999 7543993.48536 8.082999999999998 100 100 100
4207304.6613799995 7543994.98336 9.498999999999999 100 100 100
4207302.274379999 7543997.9183600005 8.399999999999999 100 100 100
4207298.10638 7543994.75736 7.530000000000001 100 100 100
4207297.79338 7543993.47936 7.712 100 100 100
4207297.99538 7543994.43736 7.5120000000000005 100 100 100
4207297.86938 7543993.839360001 7.094999999999999 100 100 100
4207297.41038 7543994.09736 7.5169999999999995 100 100 100
4207298.08538 7543994.64136 7.5070000000000014 100 100 100
4207297.77038 7543993.50536 7.748999999999999 100 100 100
4207297.979379999 7543993.98436 7.2059999999999995 100 100 100
4207298.37038 7543996.20736 7.545999999999999 100 100 100
4207298.94638 7543997.811360001 7.776 100 100 100
4207299.06638 7543997.089360001 7.515000000000001 100 100 100
4207301.74438 7543987.72736 7.722999999999999 100 100 100
4207301.70338 7543987.061360001 7.611999999999998 100 100 100
4207303.52738 7543987.015360001 7.800000000000001 100 100 100
4207301.67638 7543987.41736 7.818999999999999 100 100 100
4207304.47138 7543988.03336 7.754999999999999 100 100 100
4207297.655379999 7543998.5603600005 7.878 100 100 100
4207295.467379999 7543998.68736 7.8629999999999995 100 100 100
4207297.17438 7543998.43436 8.322 100 100 100
4207295.93838 7543998.44636 10.826 100 100 100
4207297.55538 7543998.05136 8.600000000000001 100 100 100
4207304.54038 7543998.23036 9.076 100 100 100
4207302.44838 7543999.79236 8.329 100 100 100
4207303.67138 7543998.39936 8.395 100 100 100
4207303.34438 7543999.5093600005 10.154 100 100 100
4207297.09038 7543999.42636 7.687999999999999 100 100 100
4207296.956379999 7543999.61936 7.568999999999999 100 100 100
4207297.66038 7543997.87236 7.768000000000001 100 100 100
4207295.62238 7543999.851360001 7.707999999999998 100 100 100
4207298.399379999 7543999.56336 7.628 100 100 100
4207303.56838 7543999.01736 7.631 100 100 100
4207302.39238 7543999.58136 7.649000000000001 100 100 100
4207304.58538 7543999.10236 7.5070000000000014 100 100 100
4207304.24938 7543998.20436 7.617000000000001 100 100 100
4207304.35538 7543999.98436 7.523 100 100 100
4207304.67738 7543998.40536 7.538 100 100 100
4207304.17438 7543999.98436 7.509 100 100 100
4207310.06338 7543969.43236 15.801 100 100 100
4207306.40038 7543973.45636 17.965 100 100 100
4207307.39138 7543974.10836 17.852 100 100 100
4207308.18138 7543975.48536 17.48 100 100 100
4207305.81338 7543973.623360001 15.206 100 100 100
4207305.109379999 7543974.18136 18.041 100 100 100
4207306.06738 7543972.94536 17.798000000000002 100 100 100
4207305.25838 7543972.21236 17.736 100 100 100
4207306.808379999 7543973.29536 17.907 100 100 100
4207310.05438 7543970.5093600005 15.99 100 100 100
4207304.88438 7543974.33236 17.96 100 100 100
4207306.58038 7543973.48436 18.016 100 100 100
4207307.6273799995 7543966.83536 12.251000000000001 100 100 100
