4207304.56138 7543990.663360001 25.075 200 200 200
4207304.43538 7543991.70736 24.237000000000002 200 200 200
4207304.5593799995 7543993.72936 24.34 200 200 200
4207304.29638 7543993.22736 24.021 200 200 200
4207304.12938 7543993.856360001 21.672 200 200 200
4207304.60538 7543994.17636 21.4 200 200 200
4207304.38738 7543993.8503600005 22.459 200 200 200
4207304.55538 7543993.47136 21.937 200 200 200
4207304.49938 7543993.447360001 23.941000000000003 200 200 200
4207304.189379999 7543993.53136 23.582 200 200 200
4207304.32838 7543993.65836 20.587 200 200 200
4207304.22438 7543993.64236 18.66 200 200 200
4207304.09638 7543994.26436 19.378999999999998 200 200 200
4207304.51238 7543994.79836 18.658 200 200 200
4207304.34038 7543994.32936 19.631999999999998 200 200 200
4207304.20938 7543994.13936 18.076999999999998 200 200 200
4207304.20538 7543993.55236 19.816000000000003 200 200 200
4207310.1843799995 7543990.18436 27.615000000000002 200 200 200
4207305.87438 7543994.15636 27.976 200 200 200
4207312.98938 7543990.6913600005 28.441000000000003 200 200 200
4207312.59938 7543990.25036 28.906 200 200 200
4207310.79838 7543990.20636 28.733 200 200 200
4207313.54638 7543990.3673600005 28.908 200 200 200
4207310.91038 7543990.34336 28.73 200 200 200
4207313.70338 7543990.04136 29.069 200 200 200
4207313.166379999 7543990.862360001 28.603 200 200 200
4207313.79438 7543990.30436 28.937 200 200 200
4207311.06838 7543990.010360001 28.803 200 200 200
4207314.20538 7543990.28036 28.622 200 200 200
4207307.541379999 7543993.169360001 25.701 200 200 200
4207305.00038 7543993.27036 25.102 200 200 200
4207310.05138 7543991.20036 25.864 200 200 200
4207306.11638 7543992.86536 27.375 200 200 200
4207305.797379999 7543991.24036 26.576 200 200 200
4207307.45338 7543991.470360001 25.971 200 200 200
4207307.280379999 7543993.19936 26.396 200 200 200
4207309.75038 7543990.50236 26.501 200 200 200
4207308.09438 7543992.64436 26.478 200 200 200
4207309.45538 7543990.328360001 26.593 200 200 200
4207308.825379999 7543993.48336 27.044 200 200 200
4207310.325379999 7543991.55936 25.514 200 200 200
4207305.450379999 7543991.061360001 27.2 200 200 200
4207308.42138 7543990.30836 26.398 200 200 200
4207304.76638 7543990.92036 24.880000000000003 200 200 200
4207308.23638 7543990.35336 25.254 200 200 200
4207305.75538 7543993.14736 27.252000000000002 200 200 200
4207305.1953799995 7543992.26736 25.876 200 200 200
4207305.65838 7543992.6343600005 25.058 200 200 200
4207309.09138 7543991.73836 26.429000000000002 200 200 200
4207308.02838 7543990.60236 25.551000000000002 200 200 200
4207307.03438 7543990.75536 26.963 200 200 200
4207306.007379999 7543991.18836 26.198 200 200 200
4207308.717379999 7543992.77436 26.947 200 200 200
4207304.62538 7543993.095360001 24.635 200 200 200
4207307.9113799995 7543992.85336 26.560000000000002 200 200 200
4207308.96538 7543991.55936 25.888 200 200 200
4207308.44738 7543993.038360001 26.876 200 200 200
4207308.59738 7543990.74936 26.54 200 200 200
4207308.31838 7543993.00836 26.495 200 200 200
4207306.62938 7543990.5263600005 26.966 200 200 200
4207306.27938 7543990.95936 26.167 200 200 200
4207305.041379999 7543990.45536 24.702 200 200 200
4207308.31138 7543993.06236 26.887 200 200 200
4207305.70938 7543990.12736 25.373 200 200 200
4207307.14338 7543991.54836 26.982 200 200 200
4207305.38138 7543991.46236 27.127000000000002 200 200 200
4207305.58638 7543991.21636 25.726 200 200 200
4207307.07938 7543990.294360001 25.706 200 200 200
4207308.35138 7543992.754360001 27.288 200 200 200
4207309.40838 7543990.84436 26.554000000000002 200 200 200
4207306.4453799995 7543990.05736 25.899 200 200 200
4207305.17138 7543993.2253600005 27.12 200 200 200
4207305.21438 7543990.18236 25.255000000000003 200 200 200
4207310.291379999 7543990.01636 26.618000000000002 200 200 200
4207309.3433799995 7543990.5263600005 26.537 200 200 200
4207306.19638 7543990.59436 25.834 200 200 200
4207309.65938 7543990.61436 26.473 200 200 200
4207306.609379999 7543990.669360001 26.76 200 200 200
4207309.37538 7543991.25336 25.72 200 200 200
4207308.6103799995 7543995.73636 25.783 200 200 200
4207307.23638 7543994.64136 24.598 200 200 200
4207307.42538 7543995.72836 25.168 200 200 200
4207305.40138 7543993.98036 25.201 200 200 200
4207306.15138 7543993.868360001 24.89 200 200 200
4207305.12938 7543993.96036 26.683 200 200 200
4207307.90038 7543994.68336 25.361 200 200 200
4207308.47138 7543994.822360001 26.248 200 200 200
4207307.95738 7543995.86136 25.687 200 200 200
4207306.62038 7543993.646360001 26.648 200 200 200
4207307.15238 7543995.89336 25.251 200 200 200
4207304.66238 7543993.73536 25.0 200 200 200
4207307.25838 7543995.77236 25.724 200 200 200
4207305.66838 7543993.64436 26.935000000000002 200 200 200
4207305.63038 7543993.805360001 26.411 200 200 200
4207309.35538 7543994.63136 26.068 200 200 200
4207307.604379999 7543995.17836 25.36 200 200 200
4207305.172379999 7543993.64236 26.958000000000002 200 200 200
4207308.72638 7543995.078360001 25.749000000000002 200 200 200
4207308.82738 7543995.78436 24.933 200 200 200
4207306.50638 7543993.98236 26.589 200 200 200
4207308.25638 7543994.66136 25.655 200 200 200
4207307.41538 7543994.24636 26.168 200 200 200
4207307.09038 7543993.737360001 26.902 200 200 200
4207305.9283799995 7543994.74736 24.55 200 200 200
4207308.416379999 7543995.34336 25.398 200 200 200
4207306.02238 7543993.86436 24.547 200 200 200
4207307.52238 7543994.87236 26.356 200 200 200
4207305.93138 7543994.53436 24.442 200 200 200
4207307.94638 7543994.504360001 25.391000000000002 200 200 200
4207304.75038 7543993.65836 25.167 200 200 200
4207304.93838 7543994.06336 24.537 200 200 200
4207311.67638 7543990.29036 27.43 200 200 200
4207310.4683799995 7543991.9413600005 24.91 200 200 200
4207311.22238 7543990.10536 26.265 200 200 200
4207312.814379999 7543990.004360001 26.91 200 200 200
4207305.06038 7543993.20136 22.783 200 200 200
4207310.104379999 7543991.27536 23.948 200 200 200
4207304.615379999 7543992.26136 24.098 200 200 200
4207305.83338 7543994.66136 23.474 200 200 200
4207304.79438 7543993.75536 22.363 200 200 200
4207305.25638 7543994.0833600005 21.621000000000002 200 200 200
4207305.50538 7543994.12736 21.584 200 200 200
4207305.73338 7543993.3843600005 23.049 200 200 200
4207304.67438 7543993.48336 22.927 200 200 200
4207306.08238 7543993.703360001 23.664 200 200 200
4207307.797379999 7543995.72836 23.141 200 200 200
4207307.47538 7543993.87836 21.207 200 200 200
4207304.859379999 7543994.123360001 23.875 200 200 200
4207304.74938 7543994.14136 20.933 200 200 200
4207306.33938 7543993.3503600005 23.18 200 200 200
4207304.96138 7543993.84436 21.778 200 200 200
4207308.35738 7543993.805360001 21.099 200 200 200
4207307.26238 7543994.78436 21.526 200 200 200
4207305.48938 7543993.29636 22.821 200 200 200
4207305.56938 7543994.58036 23.031 200 200 200
4207308.21538 7543994.23236 21.354 200 200 200
4207308.706379999 7543995.919360001 22.621000000000002 200 200 200
4207310.246379999 7543995.28536 21.111 200 200 200
4207306.16538 7543994.07936 22.666 200 200 200
4207312.4853799995 7543992.96036 21.357 200 200 200
4207311.10538 7543995.3673600005 20.948 200 200 200
4207311.53538 7543993.41536 21.43 200 200 200
4207305.77538 7543992.430360001 20.714 200 200 200
4207308.88538 7543995.42636 20.111 200 200 200
4207308.5423799995 7543994.828360001 19.122 200 200 200
4207310.2863799995 7543994.58236 20.215 200 200 200
4207308.80238 7543994.55036 19.891 200 200 200
4207305.74338 7543994.27036 20.808 200 200 200
4207309.95838 7543994.75136 19.499000000000002 200 200 200
4207310.00638 7543994.15836 19.463 200 200 200
4207306.11938 7543994.16036 18.53 200 200 200
4207304.90738 7543994.453360001 19.442 200 200 200
4207305.001379999 7543994.02936 20.67 200 200 200
4207306.15038 7543994.06736 20.79 200 200 200
4207306.48738 7543994.703360001 17.923000000000002 200 200 200
4207308.56538 7543994.84636 20.517000000000003 200 200 200
4207304.89038 7543995.11036 18.881 200 200 200
4207308.47838 7543995.42836 20.134 200 200 200
4207309.166379999 7543994.49436 19.755000000000003 200 200 200
4207310.94638 7543995.08836 19.737000000000002 200 200 200
4207311.047379999 7543995.02936 20.399 200 200 200
4207310.61738 7543993.970360001 20.765 200 200 200
4207311.01438 7543995.11036 19.712 200 200 200
4207310.79938 7543993.94436 20.716 200 200 200
4207311.53538 7543995.01336 19.603 200 200 200
4207304.51638 7543994.606360001 17.09 200 200 200
4207304.1103799995 7543992.81736 14.799 200 200 200
4207304.06538 7543994.00136 17.204 200 200 200
4207304.01238 7543994.11536 14.906 200 200 200
4207304.155379999 7543993.98836 15.874 200 200 200
4207304.31238 7543993.80936 17.325000000000003 200 200 200
4207304.149379999 7543994.06336 16.240000000000002 200 200 200
4207304.06138 7543993.7253600005 13.407 200 200 200
4207304.183379999 7543993.65636 14.234000000000002 200 200 200
4207304.1843799995 7543993.6743600005 14.181999999999999 200 200 200
4207304.19238 7543991.18836 10.186 200 200 200
4207306.76738 7543992.5833600005 16.569000000000003 200 200 200
4207304.876379999 7543990.25236 16.945999999999998 200 200 200
4207306.48338 7543992.00536 16.137999999999998 200 200 200
4207308.85238 7543992.44236 14.656 200 200 200
4207307.40838 7543991.54036 16.23 200 200 200
4207307.86838 7543994.36536 14.996 200 200 200
4207309.17638 7543993.25636 16.654 200 200 200
4207306.54638 7543993.68436 17.339 200 200 200
4207305.09538 7543993.9183600005 16.362000000000002 200 200 200
4207305.70338 7543993.70936 15.128 200 200 200
4207309.53938 7543995.75636 14.489 200 200 200
4207307.791379999 7543994.53636 16.881 200 200 200
4207308.91438 7543995.89336 15.383000000000001 200 200 200
4207307.84138 7543994.44936 15.197000000000001 200 200 200
4207308.967379999 7543995.84136 15.016 200 200 200
4207307.75538 7543994.83836 17.570999999999998 200 200 200
4207305.94638 7543994.61336 16.54 200 200 200
4207308.91238 7543993.447360001 14.796 200 200 200
4207308.70938 7543993.7993600005 16.105 200 200 200
4207309.604379999 7543993.81336 16.515 200 200 200
4207310.12338 7543993.5093600005 16.652 200 200 200
4207308.899379999 7543993.75336 16.944000000000003 200 200 200
4207306.57338 7543993.686360001 17.086 200 200 200
4207305.43238 7543995.00736 16.109 200 200 200
4207306.29638 7543995.48636 16.951 200 200 200
4207307.83438 7543993.76736 17.179000000000002 200 200 200
4207307.90938 7543993.82736 15.352 200 200 200
4207307.013379999 7543994.81236 14.689 200 200 200
4207305.98938 7543994.75736 16.625 200 200 200
4207308.69238 7543993.33236 15.914 200 200 200
4207308.44338 7543995.76836 15.256 200 200 200
4207308.706379999 7543993.06236 16.503999999999998 200 200 200
4207310.98038 7543993.90836 16.508000000000003 200 200 200
4207310.94438 7543995.29136 15.674 200 200 200
4207307.939379999 7543991.80636 12.676000000000002 200 200 200
4207308.854379999 7543991.42036 12.030999999999999 200 200 200
4207307.71338 7543991.83236 12.725000000000001 200 200 200
4207309.92438 7543992.04036 11.248000000000001 200 200 200
4207307.40038 7543991.54836 12.578 200 200 200
4207308.3943799995 7543991.61336 12.492999999999999 200 200 200
4207309.0703799995 7543992.56736 13.652000000000001 200 200 200
4207309.4453799995 7543992.13036 11.535 200 200 200
4207309.26638 7543991.59136 11.597999999999999 200 200 200
4207307.02138 7543990.83836 13.95 200 200 200
4207308.916379999 7543992.13036 12.14 200 200 200
4207307.84938 7543991.80836 12.701 200 200 200
4207309.53938 7543995.21036 13.285 200 200 200
4207309.700379999 7543993.004360001 12.274999999999999 200 200 200
4207308.2693799995 7543992.93436 12.902999999999999 200 200 200
4207310.200379999 7543994.38336 11.66 200 200 200
4207307.38438 7543995.6173600005 12.527999999999999 200 200 200
4207308.973379999 7543993.26236 13.875 200 200 200
4207308.78538 7543992.5093600005 11.788 200 200 200
4207308.73938 7543992.82136 13.161999999999999 200 200 200
4207305.90138 7543995.86936 12.07 200 200 200
4207310.18038 7543994.12736 11.578 200 200 200
4207310.51838 7543995.25536 12.655000000000001 200 200 200
4207309.88538 7543993.868360001 11.760000000000002 200 200 200
4207309.97838 7543993.30036 11.724 200 200 200
4207309.38538 7543995.43436 12.974 200 200 200
4207308.36438 7543994.36936 13.604 200 200 200
4207308.11638 7543995.48036 11.914000000000001 200 200 200
4207308.70338 7543995.4583600005 11.892 200 200 200
4207308.73338 7543992.851360001 12.122 200 200 200
4207310.83038 7543990.856360001 11.370000000000001 200 200 200
4207310.791379999 7543990.06736 12.568999999999999 200 200 200
4207311.70338 7543995.40636 11.947 200 200 200
4207311.83238 7543995.72236 12.207 200 200 200
4207311.90638 7543995.62536 11.829 200 200 200
4207310.66038 7543994.01336 11.254000000000001 200 200 200
4207310.3603799995 7543990.34736 11.279 200 200 200
4207307.82338 7543995.237360001 10.574000000000002 200 200 200
4207310.15138 7543992.5433600005 11.008 200 200 200
4207310.65438 7543990.6343600005 11.158999999999999 200 200 200
4207310.69038 7543993.22936 11.045000000000002 200 200 200
4207311.6103799995 7543994.42536 10.969000000000001 200 200 200
4207311.8433799995 7543993.48336 10.777999999999999 200 200 200
4207312.90338 7543994.288360001 10.599 200 200 200
4207312.67738 7543993.88836 10.709 200 200 200
