4207297.12838 7543970.112360001 28.549 200 200 200
4207297.72038 7543969.44236 28.353 200 200 200
4207297.2863799995 7543970.04236 28.526 200 200 200
4207296.29538 7543970.20936 28.402 200 200 200
4207296.38938 7543969.84036 28.298000000000002 200 200 200
4207298.35138 7543970.07036 28.264 200 200 200
4207298.80238 7543970.3843600005 28.183 200 200 200
4207297.899379999 7543969.538360001 28.415 200 200 200
4207297.75438 7543970.44636 28.734 200 200 200
4207296.81238 7543974.73636 28.674 200 200 200
4207296.98638 7543972.10736 29.767 200 200 200
4207296.04038 7543972.81236 28.134 200 200 200
4207296.27638 7543972.538360001 28.953 200 200 200
4207296.62938 7543971.288360001 29.734 200 200 200
4207298.69138 7543973.16036 28.684 200 200 200
4207295.83238 7543971.72336 28.68 200 200 200
4207298.71538 7543974.30636 28.301000000000002 200 200 200
4207296.189379999 7543971.85536 28.906 200 200 200
4207298.30038 7543971.00236 29.75 200 200 200
4207295.85538 7543972.09736 28.556 200 200 200
4207297.2523799995 7543973.96936 29.545 200 200 200
4207298.72638 7543971.45536 29.741 200 200 200
4207298.547379999 7543975.55236 28.599 200 200 200
4207297.11738 7543973.03736 29.795 200 200 200
4207298.22438 7543972.788360001 29.731 200 200 200
4207296.94138 7543971.57636 29.919 200 200 200
4207296.405379999 7543972.74136 29.228 200 200 200
4207296.649379999 7543973.73836 29.243000000000002 200 200 200
4207297.11938 7543973.73636 29.461000000000002 200 200 200
4207297.85838 7543973.56936 29.887 200 200 200
4207297.49838 7543973.47236 29.837 200 200 200
4207296.530379999 7543971.31236 28.896 200 200 200
4207298.03838 7543973.70036 29.822 200 200 200
4207298.251379999 7543971.61636 29.785 200 200 200
4207295.5023799995 7543971.32636 28.256 200 200 200
4207297.95538 7543970.57136 28.884 200 200 200
4207297.66338 7543975.29836 28.867 200 200 200
4207297.90738 7543972.6853600005 29.884 200 200 200
4207298.47538 7543972.22836 29.784 200 200 200
4207298.14038 7543971.368360001 29.804000000000002 200 200 200
4207297.91338 7543974.82736 28.918 200 200 200
4207295.63438 7543972.453360001 28.191000000000003 200 200 200
4207298.42338 7543973.69836 28.34 200 200 200
4207296.38538 7543972.62136 29.155 200 200 200
4207298.17638 7543973.669360001 29.709 200 200 200
4207297.45738 7543974.64836 29.25 200 200 200
4207298.82238 7543973.64936 28.838 200 200 200
4207298.3203799995 7543975.29036 28.731 200 200 200
4207297.17038 7543974.75236 28.865000000000002 200 200 200
4207296.44838 7543972.86636 29.377 200 200 200
4207298.11438 7543973.73436 27.944 200 200 200
4207298.51738 7543973.81436 29.517 200 200 200
4207298.38138 7543973.13036 29.749000000000002 200 200 200
4207298.7013799995 7543972.4923600005 29.677 200 200 200
4207297.31938 7543974.12836 29.541 200 200 200
4207297.21538 7543975.044360001 28.82 200 200 200
4207297.68838 7543975.04636 28.836000000000002 200 200 200
4207299.39238 7543970.436360001 27.969 200 200 200
4207299.12838 7543971.9243600005 28.489 200 200 200
4207299.19638 7543971.37436 28.668 200 200 200
4207299.36738 7543970.84336 27.959 200 200 200
4207299.36238 7543974.85336 28.595 200 200 200
4207299.36238 7543974.765360001 28.623 200 200 200
4207299.07138 7543973.68836 28.762 200 200 200
4207299.189379999 7543971.67236 29.003 200 200 200
4207299.24338 7543971.40936 28.54 200 200 200
4207299.47738 7543971.14936 28.117 200 200 200
4207299.14538 7543972.13336 28.826 200 200 200
4207299.405379999 7543972.11136 29.412 200 200 200
4207298.99938 7543974.686360001 28.788 200 200 200
4207299.0193799995 7543973.50236 29.261 200 200 200
4207298.888379999 7543975.62836 28.396 200 200 200
4207299.14838 7543971.87436 28.706 200 200 200
4207297.21938 7543968.01636 24.923000000000002 200 200 200
4207298.43238 7543968.55436 25.081 200 200 200
4207296.67038 7543968.11336 25.324 200 200 200
4207295.63038 7543970.390360001 27.583000000000002 200 200 200
4207296.61938 7543968.63036 25.565 200 200 200
4207298.39238 7543969.16636 25.954 200 200 200
4207297.473379999 7543968.97936 25.649 200 200 200
4207295.32138 7543968.33436 25.02 200 200 200
4207296.39138 7543973.97736 25.66 200 200 200
4207296.365379999 7543973.67936 25.908 200 200 200
4207298.52738 7543972.55836 25.059 200 200 200
4207295.05038 7543972.862360001 26.517 200 200 200
4207298.655379999 7543972.351360001 25.598 200 200 200
4207295.2693799995 7543970.907360001 26.097 200 200 200
4207297.00038 7543973.7083600005 27.102 200 200 200
4207296.69238 7543974.59736 26.343 200 200 200
4207298.41538 7543972.24436 26.537 200 200 200
4207298.263379999 7543972.16236 27.54 200 200 200
4207296.6843799995 7543973.4243600005 27.247 200 200 200
4207295.58338 7543971.40336 27.52 200 200 200
4207295.25638 7543971.14136 26.776 200 200 200
4207297.41538 7543972.6513600005 25.457 200 200 200
4207296.02738 7543972.94536 26.102 200 200 200
4207295.2353799995 7543971.37836 26.631 200 200 200
4207295.50538 7543973.69236 26.118000000000002 200 200 200
4207295.96438 7543974.73436 26.666 200 200 200
4207295.14338 7543971.83736 25.275 200 200 200
4207295.54338 7543971.11336 27.273 200 200 200
4207295.21538 7543973.29736 26.0 200 200 200
4207298.21338 7543972.50636 25.008000000000003 200 200 200
4207295.29938 7543970.40836 25.793 200 200 200
4207296.746379999 7543972.93736 27.665 200 200 200
4207298.45838 7543972.65536 25.158 200 200 200
4207297.933379999 7543974.89936 24.922 200 200 200
4207296.05638 7543975.419360001 25.026 200 200 200
4207296.712379999 7543972.373360001 27.121000000000002 200 200 200
4207295.29938 7543971.60236 26.879 200 200 200
4207295.50038 7543971.49736 26.984 200 200 200
4207295.6443799995 7543971.96236 27.709 200 200 200
4207297.229379999 7543974.98436 25.195 200 200 200
4207295.85138 7543974.1853600005 26.894000000000002 200 200 200
4207296.03538 7543973.44436 25.519 200 200 200
4207296.36238 7543973.78636 26.121000000000002 200 200 200
4207296.46338 7543975.66236 24.934 200 200 200
4207298.575379999 7543972.36336 27.765 200 200 200
4207300.14738 7543969.20036 26.304000000000002 200 200 200
4207299.70738 7543970.13836 25.303 200 200 200
4207300.49238 7543969.12236 25.89 200 200 200
4207299.80138 7543969.260360001 25.35 200 200 200
4207299.57138 7543969.45236 26.942 200 200 200
4207299.717379999 7543970.396360001 27.427 200 200 200
4207299.6783799995 7543969.873360001 27.135 200 200 200
4207299.74838 7543970.152360001 26.913 200 200 200
4207299.64038 7543969.64336 26.785 200 200 200
4207299.64638 7543969.53036 26.497 200 200 200
4207300.53738 7543968.74536 25.963 200 200 200
4207299.388379999 7543971.34836 26.615000000000002 200 200 200
4207299.37338 7543972.14936 25.86 200 200 200
4207299.46038 7543971.322360001 27.707 200 200 200
4207299.3943799995 7543971.89236 26.057000000000002 200 200 200
4207299.3033799995 7543971.87636 26.133000000000003 200 200 200
4207299.325379999 7543971.85336 26.121000000000002 200 200 200
4207299.54338 7543970.805360001 26.896 200 200 200
4207299.85338 7543971.95036 25.601 200 200 200
4207299.479379999 7543971.31836 26.515 200 200 200
4207299.78238 7543971.98436 25.752000000000002 200 200 200
4207299.54838 7543970.6743600005 26.658 200 200 200
4207296.4173799995 7543969.47236 22.487000000000002 200 200 200
4207296.66538 7543969.345360001 22.567 200 200 200
4207296.58338 7543969.25836 22.049 200 200 200
4207295.06538 7543968.84236 22.597 200 200 200
4207298.83038 7543968.55836 22.814 200 200 200
4207298.73038 7543968.93836 23.336 200 200 200
4207298.73038 7543968.84836 23.351 200 200 200
4207298.922379999 7543972.60236 21.573 200 200 200
4207297.18138 7543975.24636 22.488 200 200 200
4207297.013379999 7543973.078360001 23.694000000000003 200 200 200
4207298.683379999 7543972.7763600005 22.378999999999998 200 200 200
4207296.797379999 7543970.5093600005 22.412 200 200 200
4207296.28838 7543974.328360001 23.52 200 200 200
4207297.74238 7543974.3103600005 22.932000000000002 200 200 200
4207295.17338 7543971.69636 23.478 200 200 200
4207298.68138 7543972.453360001 24.01 200 200 200
4207298.6273799995 7543972.30036 21.782 200 200 200
4207296.50538 7543971.01236 22.208 200 200 200
4207297.78138 7543973.430360001 23.537 200 200 200
4207295.73838 7543975.32036 23.784 200 200 200
4207295.48038 7543972.40336 23.83 200 200 200
4207295.21938 7543971.868360001 23.372 200 200 200
4207296.26838 7543973.430360001 23.618000000000002 200 200 200
4207296.74738 7543971.10936 22.575 200 200 200
4207297.416379999 7543974.05236 22.265 200 200 200
4207298.20438 7543974.28136 22.251 200 200 200
4207296.50038 7543971.28036 22.455 200 200 200
4207298.60238 7543973.04536 21.762999999999998 200 200 200
4207295.04838 7543972.76936 23.894 200 200 200
4207295.06838 7543971.101360001 23.124000000000002 200 200 200
4207298.46038 7543971.12136 22.634 200 200 200
4207298.81338 7543970.913360001 24.556 200 200 200
4207298.79838 7543972.65936 22.306 200 200 200
4207296.53138 7543970.77836 22.1 200 200 200
4207298.723379999 7543972.80236 22.683 200 200 200
4207298.81838 7543972.46836 22.476 200 200 200
4207296.9453799995 7543975.25036 23.133 200 200 200
4207298.25038 7543974.0603600005 22.32 200 200 200
4207296.10638 7543970.51136 21.901 200 200 200
4207296.9853799995 7543975.34036 23.385 200 200 200
4207297.84038 7543975.58036 22.102 200 200 200
4207295.39238 7543972.37136 23.716 200 200 200
4207296.23038 7543971.53736 23.715 200 200 200
4207299.990379999 7543968.868360001 23.522 200 200 200
4207301.6953799995 7543969.03536 22.703 200 200 200
4207300.47138 7543969.101360001 23.024 200 200 200
4207299.87438 7543968.6003600005 22.438000000000002 200 200 200
4207299.85838 7543968.3163600005 23.421 200 200 200
4207299.98338 7543968.69936 23.983 200 200 200
4207300.09438 7543968.13136 24.213 200 200 200
4207300.71938 7543968.214360001 24.671 200 200 200
4207300.99938 7543969.98936 22.194000000000003 200 200 200
4207300.80538 7543969.08136 23.318 200 200 200
4207300.91538 7543968.85236 23.565 200 200 200
4207301.9173799995 7543968.59036 23.057000000000002 200 200 200
4207300.604379999 7543968.731360001 24.645 200 200 200
4207300.52938 7543969.86436 22.067999999999998 200 200 200
4207300.33538 7543968.43736 24.638 200 200 200
4207301.234379999 7543971.49536 22.627000000000002 200 200 200
4207299.56938 7543970.5833600005 22.628 200 200 200
4207301.88438 7543971.203360001 22.917 200 200 200
4207300.22838 7543971.38236 22.117 200 200 200
4207301.1783799995 7543970.29136 22.276 200 200 200
4207299.10338 7543971.896360001 21.807000000000002 200 200 200
4207299.08238 7543972.45736 21.451 200 200 200
4207299.37538 7543971.90436 23.038 200 200 200
4207298.9113799995 7543971.930360001 19.662 200 200 200
4207298.757379999 7543973.4583600005 20.397 200 200 200
4207298.94938 7543973.00536 21.234 200 200 200
4207298.50338 7543973.07536 19.543 200 200 200
4207298.899379999 7543972.9243600005 20.195999999999998 200 200 200
4207299.64038 7543972.87836 18.996000000000002 200 200 200
4207299.23338 7543971.96836 20.689999999999998 200 200 200
4207299.24138 7543972.13136 20.166 200 200 200
4207299.52038 7543973.3333600005 19.339 200 200 200
4207299.42638 7543973.81436 19.415 200 200 200
4207298.97038 7543973.07736 21.283 200 200 200
4207296.51138 7543976.32336 21.823999999999998 200 200 200
4207296.16538 7543975.84436 22.378999999999998 200 200 200
4207297.7183799995 7543975.96036 22.612000000000002 200 200 200
4207298.60038 7543969.351360001 15.933 200 200 200
4207298.70238 7543973.5263600005 15.501 200 200 200
4207298.0763799995 7543972.31336 16.808 200 200 200
4207299.00338 7543971.42536 15.529 200 200 200
4207298.77038 7543973.1683600005 16.981 200 200 200
4207298.888379999 7543973.27336 16.586 200 200 200
4207297.90338 7543972.504360001 16.371000000000002 200 200 200
4207298.6843799995 7543973.0093600005 18.137999999999998 200 200 200
4207298.9513799995 7543969.49436 15.157 200 200 200
4207299.43138 7543971.87636 15.494 200 200 200
4207299.31738 7543971.88236 15.57 200 200 200
4207301.75338 7543972.44536 16.849 200 200 200
4207299.10838 7543972.17236 15.815 200 200 200
4207296.64338 7543974.1913600005 12.847999999999999 200 200 200
4207296.93738 7543972.97136 13.146 200 200 200
4207297.8773799995 7543973.97136 13.418 200 200 200
4207298.54638 7543974.49536 13.739 200 200 200
4207296.67538 7543973.669360001 12.519000000000002 200 200 200
4207300.59138 7543968.78336 14.359000000000002 200 200 200
4207300.13638 7543968.226360001 14.789 200 200 200
4207301.51038 7543968.29036 12.068999999999999 200 200 200
4207299.0763799995 7543973.112360001 14.815 200 200 200
4207299.837379999 7543970.8673600005 12.998000000000001 200 200 200
4207299.26138 7543973.20436 14.535 200 200 200
4207299.49938 7543970.44636 13.120999999999999 200 200 200
4207299.58338 7543971.75536 13.076 200 200 200
4207300.825379999 7543973.93136 12.484000000000002 200 200 200
4207299.88638 7543970.42636 12.844000000000001 200 200 200
4207299.40338 7543971.33236 13.174 200 200 200
4207300.0933799995 7543970.98836 12.501999999999999 200 200 200
4207299.08938 7543969.61336 14.927 200 200 200
4207300.399379999 7543969.85836 13.356000000000002 200 200 200
4207299.42338 7543969.55036 13.827000000000002 200 200 200
4207299.08938 7543969.54836 14.954 200 200 200
4207295.416379999 7543976.26236 17.064 200 200 200
4207295.2693799995 7543975.96236 16.436999999999998 200 200 200
4207295.27338 7543975.58836 16.294 200 200 200
4207298.7183799995 7543975.220360001 14.026 200 200 200
4207301.86438 7543973.379360001 11.158999999999999 200 200 200
